1.154924774169921875e+01 -6.434709072113037109e+00 2.441061248779296875e+02
1.155275535583496094e+01 -6.655594348907470703e+00 2.441140747070312500e+02
1.155987834930419922e+01 -7.100981235504150391e+00 2.441033172607421875e+02
1.156347942352294922e+01 -7.325026988983154297e+00 2.440881195068359375e+02
1.156706905364990234e+01 -7.548675537109375000e+00 2.440759124755859375e+02
1.157416725158691406e+01 -7.993269443511962891e+00 2.440712127685546875e+02
1.157769393920898438e+01 -8.214795112609863281e+00 2.440744171142578125e+02
1.158475017547607422e+01 -8.657924652099609375e+00 2.440801696777343750e+02
1.158830928802490234e+01 -8.880568504333496094e+00 2.440753326416015625e+02
1.159190177917480469e+01 -9.104325294494628906e+00 2.440626220703125000e+02
1.159910488128662109e+01 -9.552547454833984375e+00 2.440324554443359375e+02
1.160269355773925781e+01 -9.776202201843261719e+00 2.440207061767578125e+02
1.160628986358642578e+01 -1.000010585784912109e+01 2.440072937011718750e+02
1.161350727081298828e+01 -1.044883155822753906e+01 2.439743499755859375e+02
1.163113117218017578e+01 -1.155613136291503906e+01 2.439928131103515625e+02
1.163811969757080078e+01 -1.199692440032958984e+01 2.440143890380859375e+02
1.164161968231201172e+01 -1.221750831604003906e+01 2.440237884521484375e+02
1.164515018463134766e+01 -1.243911457061767578e+01 2.440262451171875000e+02
1.165233230590820312e+01 -1.288668346405029297e+01 2.440018920898437500e+02
1.167030811309814453e+01 -1.400637435913085938e+01 2.439371490478515625e+02
1.168088245391845703e+01 -1.467071151733398438e+01 2.439479675292968750e+02
1.169142818450927734e+01 -1.533399391174316406e+01 2.439653320312500000e+02
1.170902729034423828e+01 -1.644029998779296875e+01 2.439880523681640625e+02
1.171980094909667969e+01 -1.711174392700195312e+01 2.439529571533203125e+02
1.173446464538574219e+01 -1.801798820495605469e+01 2.438386383056640625e+02
1.174170780181884766e+01 -1.846792221069335938e+01 2.438022003173828125e+02
1.174529170989990234e+01 -1.869153213500976562e+01 2.437924957275390625e+02
1.175242137908935547e+01 -1.913736915588378906e+01 2.437817382812500000e+02
1.176319694519042969e+01 -1.980907821655273438e+01 2.437478179931640625e+02
1.177388381958007812e+01 -2.047763442993164062e+01 2.437334289550781250e+02
1.178106784820556641e+01 -2.092546844482421875e+01 2.437111663818359375e+02
1.179271507263183594e+01 -2.162961959838867188e+01 2.434857940673828125e+02
1.180515575408935547e+01 -2.236358070373535156e+01 2.430887145996093750e+02
1.086680507659912109e+01 2.242485427856445312e+01 2.440539245605468750e+02
1.086995029449462891e+01 2.221412849426269531e+01 2.442120513916015625e+02
1.087950992584228516e+01 2.157884407043457031e+01 2.446317291259765625e+02
1.088606071472167969e+01 2.115049552917480469e+01 2.448377838134765625e+02
1.089975357055664062e+01 2.027690696716308594e+01 2.450138549804687500e+02
1.090684413909912109e+01 1.983300209045410156e+01 2.450069732666015625e+02
1.091756248474121094e+01 1.916460990905761719e+01 2.449648132324218750e+02
1.092465019226074219e+01 1.872073745727539062e+01 2.449589996337890625e+02
1.092817306518554688e+01 1.849943351745605469e+01 2.449639282226562500e+02
1.093876361846923828e+01 1.783493041992187500e+01 2.449711456298828125e+02
1.094585418701171875e+01 1.739096260070800781e+01 2.449640808105468750e+02
1.095648097991943359e+01 1.672529983520507812e+01 2.449571228027343750e+02
1.096363639831542969e+01 1.627930641174316406e+01 2.449265899658203125e+02
1.096722507476806641e+01 1.605595016479492188e+01 2.449073638916015625e+02
1.097805595397949219e+01 1.538379669189453125e+01 2.448271179199218750e+02
1.098519134521484375e+01 1.493834400177001953e+01 2.448049621582031250e+02
1.099575996398925781e+01 1.427445030212402344e+01 2.448201599121093750e+02
1.100284576416015625e+01 1.383056831359863281e+01 2.448158111572265625e+02
1.100643634796142578e+01 1.360707759857177734e+01 2.447966918945312500e+02
1.101730823516845703e+01 1.293333435058593750e+01 2.447051849365234375e+02
1.102435588836669922e+01 1.249065303802490234e+01 2.447147827148437500e+02
1.103472995758056641e+01 1.183317852020263672e+01 2.447974243164062500e+02
1.104176235198974609e+01 1.139106464385986328e+01 2.448115997314453125e+02
1.104531955718994141e+01 1.116864871978759766e+01 2.448045043945312500e+02
1.105604267120361328e+01 1.049967288970947266e+01 2.447659912109375000e+02
1.106318473815917969e+01 1.005387687683105469e+01 2.447427673339843750e+02
1.107384777069091797e+01 9.386848449707031250e+00 2.447252197265625000e+02
1.108094215393066406e+01 8.942664146423339844e+00 2.447186737060546875e+02
1.109526824951171875e+01 8.049544334411621094e+00 2.446599121093750000e+02
1.110230541229248047e+01 7.607250213623046875e+00 2.446720886230468750e+02
1.111274623870849609e+01 6.947888374328613281e+00 2.447283020019531250e+02
1.111980342864990234e+01 6.504978656768798828e+00 2.447336883544921875e+02
1.113421821594238281e+01 5.608649730682373047e+00 2.446475372314453125e+02
1.114124774932861328e+01 5.166651725769042969e+00 2.446616516113281250e+02
1.115184020996093750e+01 4.502039909362792969e+00 2.446677551269531250e+02
1.115888214111328125e+01 4.059691905975341797e+00 2.446781463623046875e+02
1.117301654815673828e+01 3.173167467117309570e+00 2.446822509765625000e+02
1.118022918701171875e+01 2.724664688110351562e+00 2.446387176513671875e+02
1.119105529785156250e+01 2.051623344421386719e+00 2.445722351074218750e+02
1.119815731048583984e+01 1.607114076614379883e+00 2.445643310546875000e+02
1.121256637573242188e+01 7.104773521423339844e-01 2.444850921630859375e+02
1.121978473663330078e+01 2.616141736507415771e-01 2.444418487548828125e+02
1.123050212860107422e+01 -4.076565802097321112e-01 2.444111633300781250e+02
1.123749637603759766e+01 -8.483296036720275879e-01 2.444358062744140625e+02
1.125529766082763672e+01 -1.961569547653198242e+00 2.444034576416015625e+02
1.125890350341796875e+01 -2.185928344726562500e+00 2.443835144042968750e+02
1.126943492889404297e+01 -2.848330020904541016e+00 2.444083404541015625e+02
1.127641868591308594e+01 -3.288468360900878906e+00 2.444358978271484375e+02
1.129423046112060547e+01 -4.402162551879882812e+00 2.444008331298828125e+02
1.129779815673828125e+01 -4.625148773193359375e+00 2.443920593261718750e+02
1.130858325958251953e+01 -5.297123432159423828e+00 2.443433685302734375e+02
1.131571865081787109e+01 -5.743066787719726562e+00 2.443266906738281250e+02
1.133329963684082031e+01 -6.848006248474121094e+00 2.443586730957031250e+02
1.133685684204101562e+01 -7.070591926574707031e+00 2.443532104492187500e+02
1.134760665893554688e+01 -7.741309642791748047e+00 2.443155975341796875e+02
1.135473060607910156e+01 -8.186837196350097656e+00 2.443025207519531250e+02
1.137245368957519531e+01 -9.297265052795410156e+00 2.442944183349609375e+02
1.138679790496826172e+01 -1.019214916229248047e+01 2.442424011230468750e+02
1.139395523071289062e+01 -1.063903236389160156e+01 2.442207183837890625e+02
1.141166687011718750e+01 -1.174907970428466797e+01 2.442163543701171875e+02
1.141519165039062500e+01 -1.197036647796630859e+01 2.442203674316406250e+02
1.142582035064697266e+01 -1.263645935058593750e+01 2.442172088623046875e+02
1.143300819396972656e+01 -1.308462047576904297e+01 2.441877441406250000e+02
1.145084095001220703e+01 -1.419954204559326172e+01 2.441515808105468750e+02
1.145438671112060547e+01 -1.442165374755859375e+01 2.441501617431640625e+02
1.146495246887207031e+01 -1.508528423309326172e+01 2.441634521484375000e+02
1.147193050384521484e+01 -1.552500629425048828e+01 2.441895141601562500e+02
1.148958683013916016e+01 -1.663276100158691406e+01 2.441995239257812500e+02
1.149319076538085938e+01 -1.685727119445800781e+01 2.441827392578125000e+02
1.150409793853759766e+01 -1.753471565246582031e+01 2.441084594726562500e+02
1.151136398315429688e+01 -1.798618698120117188e+01 2.440606384277343750e+02
1.152211189270019531e+01 -1.865726852416992188e+01 2.440277404785156250e+02
1.152920627593994141e+01 -1.910172080993652344e+01 2.440240936279296875e+02
1.153276920318603516e+01 -1.932457733154296875e+01 2.440183868408203125e+02
1.154360008239746094e+01 -1.999910545349121094e+01 2.439654083251953125e+02
1.155070877075195312e+01 -2.044416046142578125e+01 2.439584503173828125e+02
1.156174659729003906e+01 -2.112732124328613281e+01 2.438550720214843750e+02
1.157400035858154297e+01 -2.186117362976074219e+01 2.434532470703125000e+02
1.063197517395019531e+01 2.325375556945800781e+01 2.432499847412109375e+02
1.063508224487304688e+01 2.304681015014648438e+01 2.434718475341796875e+02
1.063819980621337891e+01 2.283957290649414062e+01 2.436865234375000000e+02
1.064134216308593750e+01 2.263152885437011719e+01 2.438869628906250000e+02
1.064451408386230469e+01 2.242255401611328125e+01 2.440716857910156250e+02
1.065091228485107422e+01 2.200284957885742188e+01 2.444095611572265625e+02
1.065412712097167969e+01 2.179258537292480469e+01 2.445695037841796875e+02
1.065735816955566406e+01 2.158175468444824219e+01 2.447196197509765625e+02
1.066062450408935547e+01 2.136975860595703125e+01 2.448520660400390625e+02
1.066728210449218750e+01 2.094138908386230469e+01 2.450536346435546875e+02
1.067067050933837891e+01 2.072506523132324219e+01 2.451242065429687500e+02
1.067409992218017578e+01 2.050729751586914062e+01 2.451749572753906250e+02
1.068107700347900391e+01 2.006750297546386719e+01 2.452192687988281250e+02
1.068461513519287109e+01 1.984584617614746094e+01 2.452183532714843750e+02
1.069173336029052734e+01 1.940086174011230469e+01 2.451952819824218750e+02
1.069529151916503906e+01 1.917840003967285156e+01 2.451843261718750000e+02
1.069883632659912109e+01 1.895644569396972656e+01 2.451798553466796875e+02
1.070589637756347656e+01 1.851368141174316406e+01 2.451851959228515625e+02
1.070942401885986328e+01 1.829232215881347656e+01 2.451880645751953125e+02
1.071296119689941406e+01 1.807067108154296875e+01 2.451873168945312500e+02
1.072004890441894531e+01 1.762684440612792969e+01 2.451794586181640625e+02
1.072358131408691406e+01 1.740536689758300781e+01 2.451808013916015625e+02
1.073062992095947266e+01 1.696300506591796875e+01 2.451904907226562500e+02
1.073417377471923828e+01 1.674108505249023438e+01 2.451864776611328125e+02
1.073773956298828125e+01 1.651834487915039062e+01 2.451728668212890625e+02
1.074131679534912109e+01 1.629514503479003906e+01 2.451539916992187500e+02
1.074490547180175781e+01 1.607149696350097656e+01 2.451301116943359375e+02
1.075210857391357422e+01 1.562319469451904297e+01 2.450715789794921875e+02
1.076281356811523438e+01 1.495454597473144531e+01 2.450290374755859375e+02
1.076986789703369141e+01 1.451193332672119141e+01 2.450366668701171875e+02
1.077340602874755859e+01 1.429017353057861328e+01 2.450353393554687500e+02
1.078050994873046875e+01 1.384562969207763672e+01 2.450214385986328125e+02
1.078408050537109375e+01 1.362267684936523438e+01 2.450071105957031250e+02
1.079125881195068359e+01 1.317515468597412109e+01 2.449613800048828125e+02
1.080191802978515625e+01 1.250819969177246094e+01 2.449405822753906250e+02
1.080890178680419922e+01 1.206838035583496094e+01 2.449778289794921875e+02
1.081239318847656250e+01 1.184854030609130859e+01 2.449968719482421875e+02
1.081942081451416016e+01 1.140699481964111328e+01 2.450149688720703125e+02
1.082295894622802734e+01 1.118524169921875000e+01 2.450137176513671875e+02
1.083007526397705078e+01 1.074021625518798828e+01 2.449956817626953125e+02
1.084079265594482422e+01 1.007089328765869141e+01 2.449511871337890625e+02
1.084788131713867188e+01 9.626907348632812500e+00 2.449444274902343750e+02
1.085141468048095703e+01 9.405329704284667969e+00 2.449452056884765625e+02
1.085850524902343750e+01 8.961310386657714844e+00 2.449382019042968750e+02
1.086207389831542969e+01 8.738316535949707031e+00 2.449250946044921875e+02
1.086925601959228516e+01 8.290511131286621094e+00 2.448815765380859375e+02
1.087283420562744141e+01 8.067169189453125000e+00 2.448655242919921875e+02
1.087637424468994141e+01 7.845328330993652344e+00 2.448640136718750000e+02
1.088682365417480469e+01 7.186885356903076172e+00 2.449266204833984375e+02
1.089030361175537109e+01 6.967535495758056641e+00 2.449483184814453125e+02
1.089733886718750000e+01 6.525739192962646484e+00 2.449621276855468750e+02
1.090091705322265625e+01 6.302378177642822266e+00 2.449460144042968750e+02
1.090814208984375000e+01 5.852724552154541016e+00 2.448871307373046875e+02
1.091172885894775391e+01 5.628962516784667969e+00 2.448678436279296875e+02
1.091527938842773438e+01 5.406699657440185547e+00 2.448624267578125000e+02
1.091881179809570312e+01 5.185191154479980469e+00 2.448638916015625000e+02
1.092234516143798828e+01 4.963646411895751953e+00 2.448650054931640625e+02
1.092941856384277344e+01 4.520283222198486328e+00 2.448647155761718750e+02
1.093294429779052734e+01 4.299076080322265625e+00 2.448688049316406250e+02
1.094705486297607422e+01 3.413872241973876953e+00 2.448813629150390625e+02
1.095060729980468750e+01 3.191529512405395508e+00 2.448752899169921875e+02
1.095417308807373047e+01 2.968653440475463867e+00 2.448646240234375000e+02
1.095774555206298828e+01 2.745440721511840820e+00 2.448510894775390625e+02
1.096132183074951172e+01 2.522090435028076172e+00 2.448364868164062500e+02
1.096846389770507812e+01 2.075794696807861328e+00 2.448110809326171875e+02
1.097202205657958984e+01 1.853162646293640137e+00 2.448029174804687500e+02
1.097914695739746094e+01 1.407598733901977539e+00 2.447842102050781250e+02
1.098274707794189453e+01 1.183226346969604492e+00 2.447615661621093750e+02
1.098637676239013672e+01 9.575362801551818848e-01 2.447280273437500000e+02
1.099362659454345703e+01 5.065214633941650391e-01 2.446647949218750000e+02
1.099720764160156250e+01 2.829703390598297119e-01 2.446497497558593750e+02
1.100076866149902344e+01 6.016433984041209826e-02 2.446409759521484375e+02
1.100788879394531250e+01 -3.852497339248657227e-01 2.446252136230468750e+02
1.101141357421875000e+01 -6.064168214797973633e-01 2.446299743652343750e+02
1.101489257812500000e+01 -8.256627917289733887e-01 2.446502990722656250e+02
1.102536678314208984e+01 -1.484891772270202637e+00 2.446982574462890625e+02
1.103257274627685547e+01 -1.934044241905212402e+00 2.446525573730468750e+02
1.103616237640380859e+01 -2.158050298690795898e+00 2.446344757080078125e+02
1.103971099853515625e+01 -2.380264043807983398e+00 2.446306762695312500e+02
1.104674720764160156e+01 -2.822044372558593750e+00 2.446439514160156250e+02
1.105027008056640625e+01 -3.043150186538696289e+00 2.446488037109375000e+02
1.105380058288574219e+01 -3.264569282531738281e+00 2.446511535644531250e+02
1.106444358825683594e+01 -3.931138277053833008e+00 2.446402893066406250e+02
1.107156753540039062e+01 -4.376773834228515625e+00 2.446235198974609375e+02
1.107515621185302734e+01 -4.600732326507568359e+00 2.446065368652343750e+02
1.107876777648925781e+01 -4.825728893280029297e+00 2.445817871093750000e+02
1.108597278594970703e+01 -5.275005817413330078e+00 2.445382080078125000e+02
1.108952140808105469e+01 -5.497202873229980469e+00 2.445349578857421875e+02
1.109303474426269531e+01 -5.717887878417968750e+00 2.445430145263671875e+02
1.110354042053222656e+01 -6.378403663635253906e+00 2.445781707763671875e+02
1.111056518554687500e+01 -6.819627285003662109e+00 2.445946655273437500e+02
1.111410808563232422e+01 -7.041606426239013672e+00 2.445928192138671875e+02
1.111767578125000000e+01 -7.264665603637695312e+00 2.445830993652343750e+02
1.112484264373779297e+01 -7.712275028228759766e+00 2.445530548095703125e+02
1.112842941284179688e+01 -7.936240673065185547e+00 2.445370178222656250e+02
1.113201045989990234e+01 -8.159942626953125000e+00 2.445229644775390625e+02
1.114260482788085938e+01 -8.824313163757324219e+00 2.445292510986328125e+02
1.114964866638183594e+01 -9.266396522521972656e+00 2.445391845703125000e+02
1.115320873260498047e+01 -9.489169120788574219e+00 2.445319061279296875e+02
1.116394329071044922e+01 -1.015993404388427734e+01 2.444932708740234375e+02
1.117107295989990234e+01 -1.060589504241943359e+01 2.444763031005859375e+02
1.119243335723876953e+01 -1.194254016876220703e+01 2.444349212646484375e+02
1.120309734344482422e+01 -1.261014556884765625e+01 2.444195251464843750e+02
1.121021556854248047e+01 -1.305565452575683594e+01 2.444064636230468750e+02
1.122805976867675781e+01 -1.417160701751708984e+01 2.443600769042968750e+02
1.123161411285400391e+01 -1.439411735534667969e+01 2.443554077148437500e+02
1.124219131469726562e+01 -1.505777454376220703e+01 2.443666076660156250e+02
1.124918937683105469e+01 -1.549773311614990234e+01 2.443898773193359375e+02
1.126685810089111328e+01 -1.660559654235839844e+01 2.443961639404296875e+02
1.127045536041259766e+01 -1.683009910583496094e+01 2.443788452148437500e+02
1.128127193450927734e+01 -1.750486755371093750e+01 2.443195648193359375e+02
1.128846263885498047e+01 -1.795374488830566406e+01 2.442866363525390625e+02
1.129559421539306641e+01 -1.839991378784179688e+01 2.442708282470703125e+02
1.129913330078125000e+01 -1.862179756164550781e+01 2.442704010009765625e+02
1.130266380310058594e+01 -1.884316635131835938e+01 2.442731323242187500e+02
1.130975246429443359e+01 -1.928734397888183594e+01 2.442696990966796875e+02
1.131335353851318359e+01 -1.951207923889160156e+01 2.442518615722656250e+02
1.132060527801513672e+01 -1.996390914916992188e+01 2.442021484375000000e+02
1.132418918609619141e+01 -2.018786811828613281e+01 2.441893463134765625e+02
1.132775306701660156e+01 -2.041088294982910156e+01 2.441822662353515625e+02
1.133507823944091797e+01 -2.086615753173828125e+01 2.441128692626953125e+02
1.133895778656005859e+01 -2.110411071777343750e+01 2.440168304443359375e+02
1.134300041198730469e+01 -2.134974479675292969e+01 2.438756256103515625e+02
1.134715938568115234e+01 -2.160090446472167969e+01 2.437024078369140625e+02
1.135136318206787109e+01 -2.185420608520507812e+01 2.435174865722656250e+02
1.135557270050048828e+01 -2.210785675048828125e+01 2.433315734863281250e+02
1.135980987548828125e+01 -2.236287117004394531e+01 2.431386871337890625e+02
1.040610122680664062e+01 2.345737457275390625e+01 2.430285949707031250e+02
1.044531345367431641e+01 2.094740104675292969e+01 2.451810302734375000e+02
1.044870758056640625e+01 2.073249244689941406e+01 2.452694702148437500e+02
1.047323894500732422e+01 1.919189262390136719e+01 2.454000244140625000e+02
1.048029994964599609e+01 1.874927330017089844e+01 2.454046020507812500e+02
1.048382377624511719e+01 1.852826309204101562e+01 2.454105377197265625e+02
1.049090671539306641e+01 1.808460617065429688e+01 2.454020996093750000e+02
1.050153732299804688e+01 1.741877937316894531e+01 2.453855590820312500e+02
1.051210689544677734e+01 1.675593757629394531e+01 2.454047698974609375e+02
1.051922893524169922e+01 1.631032371520996094e+01 2.453736572265625000e+02
1.052281093597412109e+01 1.608649444580078125e+01 2.453464355468750000e+02
1.052998352050781250e+01 1.563845157623291016e+01 2.452884826660156250e+02
1.054063987731933594e+01 1.497127723693847656e+01 2.452590942382812500e+02
1.055125713348388672e+01 1.430602073669433594e+01 2.452518768310546875e+02
1.055836963653564453e+01 1.386090469360351562e+01 2.452293701171875000e+02
1.056191730499267578e+01 1.363868713378906250e+01 2.452220001220703125e+02
1.056901741027832031e+01 1.319409370422363281e+01 2.452057495117187500e+02
1.057966995239257812e+01 1.252714920043945312e+01 2.451813201904296875e+02
1.059022903442382812e+01 1.186480903625488281e+01 2.452058105468750000e+02
1.059726715087890625e+01 1.142326641082763672e+01 2.452218475341796875e+02
1.060080337524414062e+01 1.120173931121826172e+01 2.452219085693359375e+02
1.060790634155273438e+01 1.075698089599609375e+01 2.452045440673828125e+02
1.061860179901123047e+01 1.008779239654541016e+01 2.451583862304687500e+02
1.062920475006103516e+01 9.423274040222167969e+00 2.451598358154296875e+02
1.063628101348876953e+01 8.979912757873535156e+00 2.451572723388671875e+02
1.063984298706054688e+01 8.756969451904296875e+00 2.451436157226562500e+02
1.064701080322265625e+01 8.308904647827148438e+00 2.450955505371093750e+02
1.065765380859375000e+01 7.642369747161865234e+00 2.450782318115234375e+02
1.066809368133544922e+01 6.986099243164062500e+00 2.451580657958984375e+02
1.067512035369873047e+01 6.545224189758300781e+00 2.451786041259765625e+02
1.067868709564208984e+01 6.322134494781494141e+00 2.451640472412109375e+02
1.068588161468505859e+01 5.872643470764160156e+00 2.451047363281250000e+02
1.069658756256103516e+01 5.202859401702880859e+00 2.450581817626953125e+02
1.070720100402832031e+01 4.537737369537353516e+00 2.450545654296875000e+02
1.071424388885498047e+01 4.096034526824951172e+00 2.450673980712890625e+02
1.071776771545410156e+01 3.875084400177001953e+00 2.450728302001953125e+02
1.072483158111572266e+01 3.432325839996337891e+00 2.450759887695312500e+02
1.073547744750976562e+01 2.765608549118041992e+00 2.450581665039062500e+02
1.074615001678466797e+01 2.097444534301757812e+00 2.450282897949218750e+02
1.075326251983642578e+01 1.652102470397949219e+00 2.450095825195312500e+02
1.075683307647705078e+01 1.428766489028930664e+00 2.449947052001953125e+02
1.076403713226318359e+01 9.786835908889770508e-01 2.449366607666015625e+02
1.077479934692382812e+01 3.058401346206665039e-01 2.448701629638671875e+02
1.078188991546630859e+01 -1.383912861347197931e-01 2.448622894287109375e+02
1.078544616699218750e+01 -3.610303997993469238e-01 2.448540802001953125e+02
1.079249477386474609e+01 -8.030676245689392090e-01 2.448641662597656250e+02
1.080297374725341797e+01 -1.461095452308654785e+00 2.449193115234375000e+02
1.082076263427734375e+01 -2.574812650680541992e+00 2.448742523193359375e+02
1.082430744171142578e+01 -2.796930789947509766e+00 2.448703308105468750e+02
1.083142089843750000e+01 -3.242299556732177734e+00 2.448536987304687500e+02
1.083496284484863281e+01 -3.464235305786132812e+00 2.448512878417968750e+02
1.084202003479003906e+01 -3.906645298004150391e+00 2.448577117919921875e+02
1.085269927978515625e+01 -4.575260162353515625e+00 2.448290252685546875e+02
1.085993003845214844e+01 -5.026857376098632812e+00 2.447659759521484375e+02
1.086351490020751953e+01 -5.251001358032226562e+00 2.447472381591796875e+02
1.087054443359375000e+01 -5.692015171051025391e+00 2.447645111083984375e+02
1.087403202056884766e+01 -5.911053180694580078e+00 2.447839660644531250e+02
1.088104724884033203e+01 -6.351287364959716797e+00 2.448064727783203125e+02
1.089163494110107422e+01 -7.014982700347900391e+00 2.448151397705078125e+02
1.089874839782714844e+01 -7.460472106933593750e+00 2.447987670898437500e+02
1.090232658386230469e+01 -7.684231758117675781e+00 2.447833099365234375e+02
1.090950107574462891e+01 -8.132959365844726562e+00 2.447440338134765625e+02
1.091307067871093750e+01 -8.356367111206054688e+00 2.447314147949218750e+02
1.092010688781738281e+01 -8.797648429870605469e+00 2.447457733154296875e+02
1.093065071105957031e+01 -9.459058761596679688e+00 2.447704772949218750e+02
1.093779373168945312e+01 -9.906110763549804688e+00 2.447439117431640625e+02
1.094136428833007812e+01 -1.012956333160400391e+01 2.447312622070312500e+02
1.094847488403320312e+01 -1.057484054565429688e+01 2.447174530029296875e+02
1.095202922821044922e+01 -1.079743385314941406e+01 2.447109069824218750e+02
1.095916557312011719e+01 -1.124406242370605469e+01 2.446880493164062500e+02
1.096984767913818359e+01 -1.191290664672851562e+01 2.446616973876953125e+02
1.097697067260742188e+01 -1.235886383056640625e+01 2.446439819335937500e+02
1.098052978515625000e+01 -1.258174037933349609e+01 2.446358642578125000e+02
1.098759937286376953e+01 -1.302479934692382812e+01 2.446377716064453125e+02
1.099113559722900391e+01 -1.324644470214843750e+01 2.446379241943359375e+02
1.099828433990478516e+01 -1.369385528564453125e+01 2.446109924316406250e+02
1.100187683105468750e+01 -1.391846466064453125e+01 2.445916748046875000e+02
1.100901222229003906e+01 -1.436517238616943359e+01 2.445698394775390625e+02
1.101608276367187500e+01 -1.480831146240234375e+01 2.445714569091796875e+02
1.101961135864257812e+01 -1.502947425842285156e+01 2.445748596191406250e+02
1.102666854858398438e+01 -1.547193145751953125e+01 2.445807647705078125e+02
1.103724861145019531e+01 -1.613527107238769531e+01 2.445916290283203125e+02
1.104791450500488281e+01 -1.680320930480957031e+01 2.445731048583984375e+02
1.105505847930908203e+01 -1.725035476684570312e+01 2.445492858886718750e+02
1.105862712860107422e+01 -1.747374725341796875e+01 2.445385894775390625e+02
1.106577491760253906e+01 -1.792117309570312500e+01 2.445133972167968750e+02
1.108698368072509766e+01 -1.925041961669921875e+01 2.445190734863281250e+02
1.109783935546875000e+01 -1.992874336242675781e+01 2.444387054443359375e+02
1.110504913330078125e+01 -2.037955665588378906e+01 2.443943176269531250e+02
1.111643505096435547e+01 -2.108693122863769531e+01 2.441425781250000000e+02
1.112467288970947266e+01 -2.159403038024902344e+01 2.437662506103515625e+02
1.113722991943359375e+01 -2.236584281921386719e+01 2.431440887451171875e+02
1.018998908996582031e+01 2.303963279724121094e+01 2.434714965820312500e+02
1.019999504089355469e+01 2.241645812988281250e+01 2.440863647460937500e+02
1.021001148223876953e+01 2.179241943359375000e+01 2.446647644042968750e+02
1.021335506439208984e+01 2.158408546447753906e+01 2.448480682373046875e+02
1.022008800506591797e+01 2.116418647766113281e+01 2.451642913818359375e+02
1.022348308563232422e+01 2.095215606689453125e+01 2.452916870117187500e+02
1.024079513549804688e+01 1.986941528320312500e+01 2.456137542724609375e+02
1.025844097137451172e+01 1.876388740539550781e+01 2.456316528320312500e+02
1.026196479797363281e+01 1.854315185546875000e+01 2.456396484375000000e+02
1.027260780334472656e+01 1.787607002258300781e+01 2.456035461425781250e+02
1.027969074249267578e+01 1.743213844299316406e+01 2.455896148681640625e+02
1.029736042022705078e+01 1.632497978210449219e+01 2.455871582031250000e+02
1.030092716217041016e+01 1.610129737854003906e+01 2.455604553222656250e+02
1.031160831451416016e+01 1.543169879913330078e+01 2.454986419677734375e+02
1.031868457794189453e+01 1.498821926116943359e+01 2.454914855957031250e+02
1.034347248077392578e+01 1.343482112884521484e+01 2.454539184570312500e+02
1.035408306121826172e+01 1.276991653442382812e+01 2.454474182128906250e+02
1.036471557617187500e+01 1.210357475280761719e+01 2.454258117675781250e+02
1.038238430023193359e+01 1.099654102325439453e+01 2.454273376464843750e+02
1.039305305480957031e+01 1.032775783538818359e+01 2.453818511962890625e+02
1.039660358428955078e+01 1.010519981384277344e+01 2.453706665039062500e+02
1.040367698669433594e+01 9.661993980407714844e+00 2.453676910400390625e+02
1.040720176696777344e+01 9.441157341003417969e+00 2.453738098144531250e+02
1.041072654724121094e+01 9.220326423645019531e+00 2.453799133300781250e+02
1.041781044006347656e+01 8.776393890380859375e+00 2.453696746826171875e+02
1.042137813568115234e+01 8.552686691284179688e+00 2.453476257324218750e+02
1.042852973937988281e+01 8.104284286499023438e+00 2.452946166992187500e+02
1.043208408355712891e+01 7.881477355957031250e+00 2.452818603515625000e+02
1.043561267852783203e+01 7.660435676574707031e+00 2.452860870361328125e+02
1.044260025024414062e+01 7.222865104675292969e+00 2.453371429443359375e+02
1.044608783721923828e+01 7.004559040069580078e+00 2.453668212890625000e+02
1.044959163665771484e+01 6.785109519958496094e+00 2.453854827880859375e+02
1.045668029785156250e+01 6.340888977050781250e+00 2.453727416992187500e+02
1.046025753021240234e+01 6.116606235504150391e+00 2.453463134765625000e+02
1.046742057800292969e+01 5.667374134063720703e+00 2.452880249023437500e+02
1.047098827362060547e+01 5.443711757659912109e+00 2.452679748535156250e+02
1.047454261779785156e+01 5.220872879028320312e+00 2.452555694580078125e+02
1.048162364959716797e+01 4.777189254760742188e+00 2.452490386962890625e+02
1.048515129089355469e+01 4.556172370910644531e+00 2.452532043457031250e+02
1.048867416381835938e+01 4.335485935211181641e+00 2.452602691650390625e+02
1.049571895599365234e+01 3.894155740737915039e+00 2.452745666503906250e+02
1.049924373626708984e+01 3.673325061798095703e+00 2.452801513671875000e+02
1.050630378723144531e+01 3.230963468551635742e+00 2.452849884033203125e+02
1.050984764099121094e+01 3.008954763412475586e+00 2.452801513671875000e+02
1.051339912414550781e+01 2.786303997039794922e+00 2.452697906494140625e+02
1.052051448822021484e+01 2.340279579162597656e+00 2.452430572509765625e+02
1.052406883239746094e+01 2.117532968521118164e+00 2.452321014404296875e+02
1.052761840820312500e+01 1.895052194595336914e+00 2.452235107421875000e+02
1.053472709655761719e+01 1.449565529823303223e+00 2.452020416259765625e+02
1.053829765319824219e+01 1.225695848464965820e+00 2.451819305419921875e+02
1.055257034301757812e+01 3.308716416358947754e-01 2.451084747314453125e+02
1.056320571899414062e+01 -3.355962336063385010e-01 2.450928649902343750e+02
1.056676387786865234e+01 -5.586128830909729004e-01 2.450807037353515625e+02
1.057381248474121094e+01 -1.000217318534851074e+00 2.450924682617187500e+02
1.057731151580810547e+01 -1.219272613525390625e+00 2.451123504638671875e+02
1.058790206909179688e+01 -1.882833480834960938e+00 2.451200561523437500e+02
1.059144783020019531e+01 -2.105116367340087891e+00 2.451138763427734375e+02
1.060209369659423828e+01 -2.772303104400634766e+00 2.450928649902343750e+02
1.060923385620117188e+01 -3.219907999038696289e+00 2.450571746826171875e+02
1.061277484893798828e+01 -3.441793203353881836e+00 2.450543823242187500e+02
1.061980724334716797e+01 -3.882302045822143555e+00 2.450739440917968750e+02
1.063044261932373047e+01 -4.548772335052490234e+00 2.450592041015625000e+02
1.064120197296142578e+01 -5.223437309265136719e+00 2.449830322265625000e+02
1.064823722839355469e+01 -5.664150714874267578e+00 2.450008392333984375e+02
1.065173721313476562e+01 -5.883324623107910156e+00 2.450184478759765625e+02
1.065878582000732422e+01 -6.324897766113281250e+00 2.450294036865234375e+02
1.066939926147460938e+01 -6.989977359771728516e+00 2.450255737304687500e+02
1.068002986907958984e+01 -7.656111240386962891e+00 2.450140991210937500e+02
1.068718433380126953e+01 -8.104673385620117188e+00 2.449744110107421875e+02
1.069075679779052734e+01 -8.328597068786621094e+00 2.449573211669921875e+02
1.069781494140625000e+01 -8.770828247070312500e+00 2.449633789062500000e+02
1.070835208892822266e+01 -9.430886268615722656e+00 2.449953918457031250e+02
1.071904563903808594e+01 -1.010116958618164062e+01 2.449554595947265625e+02
1.072614955902099609e+01 -1.054642200469970703e+01 2.449403076171875000e+02
1.072970199584960938e+01 -1.076897621154785156e+01 2.449333038330078125e+02
1.073681926727294922e+01 -1.121514225006103516e+01 2.449121551513671875e+02
1.074392223358154297e+01 -1.166024971008300781e+01 2.448984527587890625e+02
1.077224922180175781e+01 -1.343533325195312500e+01 2.448804931640625000e+02
1.078303241729736328e+01 -1.411146259307861328e+01 2.448050842285156250e+02
1.078659439086914062e+01 -1.433468914031982422e+01 2.447943267822265625e+02
1.079366207122802734e+01 -1.477750492095947266e+01 2.447966308593750000e+02
1.079720401763916016e+01 -1.499944210052490234e+01 2.447943115234375000e+02
1.080075931549072266e+01 -1.522230911254882812e+01 2.447860260009765625e+02
1.080786991119384766e+01 -1.566796684265136719e+01 2.447700195312500000e+02
1.081141090393066406e+01 -1.588981056213378906e+01 2.447684020996093750e+02
1.081494331359863281e+01 -1.611110687255859375e+01 2.447702789306640625e+02
1.082200527191162109e+01 -1.655361175537109375e+01 2.447745056152343750e+02
1.082553958892822266e+01 -1.677510261535644531e+01 2.447750701904296875e+02
1.083261108398437500e+01 -1.721813583374023438e+01 2.447758636474609375e+02
1.083615875244140625e+01 -1.744049835205078125e+01 2.447709350585937500e+02
1.083972740173339844e+01 -1.766416931152343750e+01 2.447578735351562500e+02
1.084687709808349609e+01 -1.811234283447265625e+01 2.447267913818359375e+02
1.085041809082031250e+01 -1.833426666259765625e+01 2.447247467041015625e+02
1.085393047332763672e+01 -1.855430030822753906e+01 2.447343902587890625e+02
1.086094093322753906e+01 -1.899336433410644531e+01 2.447596130371093750e+02
1.086448669433593750e+01 -1.921560478210449219e+01 2.447555389404296875e+02
1.086807823181152344e+01 -1.944076156616210938e+01 2.447337036132812500e+02
1.087532997131347656e+01 -1.989554405212402344e+01 2.446632995605468750e+02
1.087895679473876953e+01 -2.012302780151367188e+01 2.446278533935546875e+02
1.088260650634765625e+01 -2.035192871093750000e+01 2.445840454101562500e+02
1.089818382263183594e+01 -2.133150291442871094e+01 2.440304260253906250e+02
1.090643882751464844e+01 -2.185149383544921875e+01 2.435795288085937500e+02
1.091055393218994141e+01 -2.211068153381347656e+01 2.433607788085937500e+02
9.960567474365234375e+00 2.345013618469238281e+01 2.430273742675781250e+02
9.964004516601562500e+00 2.324291801452636719e+01 2.432484283447265625e+02
9.967440605163574219e+00 2.303574371337890625e+01 2.434670410156250000e+02
9.970875740051269531e+00 2.282840347290039062e+01 2.436802978515625000e+02
9.974310874938964844e+00 2.262077713012695312e+01 2.438866271972656250e+02
9.977745056152343750e+00 2.241304206848144531e+01 2.440885925292968750e+02
9.981178283691406250e+00 2.220538330078125000e+01 2.442888641357421875e+02
9.984606742858886719e+00 2.199798774719238281e+01 2.444900970458984375e+02
9.988032341003417969e+00 2.179071044921875000e+01 2.446902008056640625e+02
9.994890213012695312e+00 2.137488746643066406e+01 2.450654449462890625e+02
9.998329162597656250e+00 2.116549491882324219e+01 2.452295684814453125e+02
1.000177764892578125e+01 2.095487785339355469e+01 2.453753204345703125e+02
1.000523376464843750e+01 2.074297714233398438e+01 2.455021972656250000e+02
1.001218128204345703e+01 2.031480598449707031e+01 2.456942138671875000e+02
1.001567363739013672e+01 2.009822654724121094e+01 2.457560729980468750e+02
1.001918220520019531e+01 1.987997627258300781e+01 2.457956695556640625e+02
1.002622795104980469e+01 1.943953895568847656e+01 2.458233184814453125e+02
1.002975654602050781e+01 1.921863555908203125e+01 2.458282165527343750e+02
1.003328227996826172e+01 1.899818992614746094e+01 2.458387756347656250e+02
1.004033088684082031e+01 1.855751609802246094e+01 2.458621978759765625e+02
1.004386520385742188e+01 1.833596992492675781e+01 2.458587493896484375e+02
1.005095577239990234e+01 1.789041328430175781e+01 2.458219604492187500e+02
1.005449962615966797e+01 1.766784286499023438e+01 2.458063812255859375e+02
1.005803489685058594e+01 1.744617462158203125e+01 2.458018188476562500e+02
1.006508731842041016e+01 1.700488090515136719e+01 2.458171081542968750e+02
1.006861686706542969e+01 1.678394508361816406e+01 2.458211517333984375e+02
1.007570266723632812e+01 1.633908843994140625e+01 2.457941894531250000e+02
1.007925319671630859e+01 1.611576271057128906e+01 2.457705230712890625e+02
1.008280181884765625e+01 1.589269924163818359e+01 2.457501068115234375e+02
1.008988475799560547e+01 1.544818973541259766e+01 2.457283935546875000e+02
1.009342288970947266e+01 1.522633647918701172e+01 2.457222442626953125e+02
1.009696197509765625e+01 1.500430107116699219e+01 2.457141113281250000e+02
1.010759639739990234e+01 1.433649349212646484e+01 2.456712188720703125e+02
1.011467361450195312e+01 1.389276218414306641e+01 2.456595153808593750e+02
1.011819458007812500e+01 1.367263984680175781e+01 2.456728210449218750e+02
1.012875556945800781e+01 1.301255893707275391e+01 2.457148590087890625e+02
1.013584613800048828e+01 1.256731224060058594e+01 2.456867523193359375e+02
1.014999675750732422e+01 1.168015003204345703e+01 2.456668701171875000e+02
1.015707302093505859e+01 1.123637104034423828e+01 2.456550903320312500e+02
1.016772079467773438e+01 1.056745433807373047e+01 2.456047058105468750e+02
1.017480754852294922e+01 1.012281608581542969e+01 2.455850219726562500e+02
1.018893051147460938e+01 9.238346099853515625e+00 2.455941772460937500e+02
1.019599628448486328e+01 8.795722007751464844e+00 2.455947418212890625e+02
1.020667934417724609e+01 8.123633384704589844e+00 2.455167541503906250e+02
1.021376323699951172e+01 7.679276466369628906e+00 2.455013122558593750e+02
1.022779655456542969e+01 6.803494930267333984e+00 2.455925445556640625e+02
1.023488235473632812e+01 6.358971595764160156e+00 2.455751495361328125e+02
1.024557495117187500e+01 5.686035633087158203e+00 2.454930725097656250e+02
1.024913501739501953e+01 5.462243556976318359e+00 2.454709472656250000e+02
1.025268459320068359e+01 5.239310264587402344e+00 2.454567871093750000e+02
1.025975608825683594e+01 4.796265602111816406e+00 2.454542846679687500e+02
1.026328086853027344e+01 4.575654029846191406e+00 2.454611968994140625e+02
1.026680469512939453e+01 4.355156421661376953e+00 2.454690551757812500e+02
1.027385520935058594e+01 3.914035081863403320e+00 2.454834289550781250e+02
1.028443050384521484e+01 3.252308607101440430e+00 2.455040435791015625e+02
1.029152011871337891e+01 2.807430982589721680e+00 2.454851226806640625e+02
1.029863643646240234e+01 2.360259294509887695e+00 2.454467315673828125e+02
1.030218791961669922e+01 2.137260675430297852e+00 2.454328002929687500e+02
1.030927467346191406e+01 1.692734241485595703e+00 2.454177246093750000e+02
1.031281757354736328e+01 1.470497608184814453e+00 2.454104766845703125e+02
1.031636619567871094e+01 1.247724533081054688e+00 2.453987731933593750e+02
1.032347679138183594e+01 8.011680841445922852e-01 2.453671722412109375e+02
1.032702350616455078e+01 5.785759687423706055e-01 2.453572540283203125e+02
1.033056163787841797e+01 3.568041622638701837e-01 2.453542022705078125e+02
1.033764266967773438e+01 -8.711140602827069368e-02 2.453450775146484375e+02
1.034120082855224609e+01 -3.106265366077423096e-01 2.453278045654296875e+02
1.034476280212402344e+01 -5.346066951751708984e-01 2.453068695068359375e+02
1.035185050964355469e+01 -9.790029525756835938e-01 2.452942810058593750e+02
1.035536575317382812e+01 -1.198814392089843750e+00 2.453072967529296875e+02
1.036239910125732422e+01 -1.638500809669494629e+00 2.453324584960937500e+02
1.036592674255371094e+01 -1.859360456466674805e+00 2.453367767333984375e+02
1.036945724487304688e+01 -2.080362081527709961e+00 2.453399353027343750e+02
1.037653350830078125e+01 -2.523980379104614258e+00 2.453334197998046875e+02
1.038009834289550781e+01 -2.748060703277587891e+00 2.453123474121093750e+02
1.038367271423339844e+01 -2.972922801971435547e+00 2.452853393554687500e+02
1.039077091217041016e+01 -3.418414354324340820e+00 2.452647247314453125e+02
1.039429092407226562e+01 -3.638563871383666992e+00 2.452745819091796875e+02
1.040133094787597656e+01 -4.078854560852050781e+00 2.452940826416015625e+02
1.040486717224121094e+01 -4.300395011901855469e+00 2.452930603027343750e+02
1.040841865539550781e+01 -4.523291587829589844e+00 2.452817077636718750e+02
1.041554546356201172e+01 -4.971299171447753906e+00 2.452424926757812500e+02
1.041909885406494141e+01 -5.194294452667236328e+00 2.452306823730468750e+02
1.042263221740722656e+01 -5.415617942810058594e+00 2.452314758300781250e+02
1.042967224121093750e+01 -5.855972290039062500e+00 2.452501068115234375e+02
1.043320560455322266e+01 -6.077330112457275391e+00 2.452505340576171875e+02
1.044030475616455078e+01 -6.522788524627685547e+00 2.452311706542968750e+02
1.044384956359863281e+01 -6.745047569274902344e+00 2.452250213623046875e+02
1.044737911224365234e+01 -6.966106891632080078e+00 2.452276916503906250e+02
1.045442008972167969e+01 -7.406473159790039062e+00 2.452456512451171875e+02
1.045795536041259766e+01 -7.627937316894531250e+00 2.452452545166015625e+02
1.046150970458984375e+01 -7.851088047027587891e+00 2.452326965332031250e+02
1.046864414215087891e+01 -8.299534797668457031e+00 2.451924438476562500e+02
1.047219562530517578e+01 -8.522417068481445312e+00 2.451820678710937500e+02
1.047924327850341797e+01 -8.963417053222656250e+00 2.451952972412109375e+02
1.048276042938232422e+01 -9.183407783508300781e+00 2.452054138183593750e+02
1.048629379272460938e+01 -9.404718399047851562e+00 2.452061767578125000e+02
1.049340629577636719e+01 -9.851259231567382812e+00 2.451802520751953125e+02
1.049696540832519531e+01 -1.007472705841064453e+01 2.451660308837890625e+02
1.050051689147949219e+01 -1.029760265350341797e+01 2.451560211181640625e+02
1.050761318206787109e+01 -1.074273014068603516e+01 2.451404418945312500e+02
1.051116371154785156e+01 -1.096549129486083984e+01 2.451313629150390625e+02
1.051825428009033203e+01 -1.141011333465576172e+01 2.451195068359375000e+02
1.052531623840332031e+01 -1.185242938995361328e+01 2.451233978271484375e+02
1.053593730926513672e+01 -1.251805686950683594e+01 2.451146392822265625e+02
1.054297733306884766e+01 -1.295853900909423828e+01 2.451306610107421875e+02
1.054649829864501953e+01 -1.317879295349121094e+01 2.451384887695312500e+02
1.055363082885742188e+01 -1.362697505950927734e+01 2.451032562255859375e+02
1.055723285675048828e+01 -1.385394287109375000e+01 2.450668640136718750e+02
1.056438541412353516e+01 -1.430364131927490234e+01 2.450224609375000000e+02
1.057499408721923828e+01 -1.496826934814453125e+01 2.450211486816406250e+02
1.058213424682617188e+01 -1.541696071624755859e+01 2.449841461181640625e+02
1.058570289611816406e+01 -1.564118480682373047e+01 2.449665679931640625e+02
1.059279346466064453e+01 -1.608580398559570312e+01 2.449561614990234375e+02
1.059631919860839844e+01 -1.630648994445800781e+01 2.449613342285156250e+02
1.060334205627441406e+01 -1.674551200866699219e+01 2.449863891601562500e+02
1.061389732360839844e+01 -1.740584373474121094e+01 2.450120697021484375e+02
1.062105369567871094e+01 -1.785570907592773438e+01 2.449688568115234375e+02
1.062463092803955078e+01 -1.808063697814941406e+01 2.449474487304687500e+02
1.063169765472412109e+01 -1.852322959899902344e+01 2.449498291015625000e+02
1.063520050048828125e+01 -1.874209213256835938e+01 2.449659576416015625e+02
1.064225578308105469e+01 -1.918371200561523438e+01 2.449741058349609375e+02
1.064944839477539062e+01 -1.963657951354980469e+01 2.449137573242187500e+02
1.065307807922363281e+01 -1.986563873291015625e+01 2.448679199218750000e+02
1.065672302246093750e+01 -2.009593772888183594e+01 2.448148651123046875e+02
1.066414737701416016e+01 -2.056729316711425781e+01 2.446450500488281250e+02
1.067192745208740234e+01 -2.106717109680175781e+01 2.443068389892578125e+02
1.067594909667968750e+01 -2.132744789123535156e+01 2.440776367187500000e+02
1.068000411987304688e+01 -2.159058570861816406e+01 2.438327789306640625e+02
1.068405532836914062e+01 -2.185317039489746094e+01 2.435925903320312500e+02
1.068808937072753906e+01 -2.211443328857421875e+01 2.433615722656250000e+02
1.069213104248046875e+01 -2.237610816955566406e+01 2.431294555664062500e+02
9.755494117736816406e+00 2.240965461730957031e+01 2.440912322998046875e+02
9.776635169982910156e+00 2.116491508483886719e+01 2.452696228027343750e+02
9.780151367187500000e+00 2.095569419860839844e+01 2.454336395263671875e+02
9.797744750976562500e+00 1.988939094543457031e+01 2.459627838134765625e+02
9.811855316162109375e+00 1.901144027709960938e+01 2.460500183105468750e+02
9.818912506103515625e+00 1.857111549377441406e+01 2.460752258300781250e+02
9.836578369140625000e+00 1.746152496337890625e+01 2.460297546386718750e+02
9.850704193115234375e+00 1.657658958435058594e+01 2.460271453857421875e+02
9.857779502868652344e+00 1.613060379028320312e+01 2.459848785400390625e+02
9.875455856323242188e+00 1.501970005035400391e+01 2.459289855957031250e+02
9.889604568481445312e+00 1.412968635559082031e+01 2.458719024658203125e+02
9.896656036376953125e+00 1.369035720825195312e+01 2.459062652587890625e+02
9.914304733276367188e+00 1.258658885955810547e+01 2.459308319091796875e+02
9.928443908691406250e+00 1.169876861572265625e+01 2.458991699218750000e+02
9.935518264770507812e+00 1.125411033630371094e+01 2.458760070800781250e+02
9.953215599060058594e+00 1.014076709747314453e+01 2.458027343750000000e+02
9.967343330383300781e+00 9.256040573120117188e+00 2.458052062988281250e+02
9.974401473999023438e+00 8.814723014831542969e+00 2.458165588378906250e+02
9.992114067077636719e+00 7.699343204498291016e+00 2.457282562255859375e+02
1.000619792938232422e+01 6.822104930877685547e+00 2.458016967773437500e+02
1.001327610015869141e+01 6.377333641052246094e+00 2.457801208496093750e+02
1.003101253509521484e+01 5.258952140808105469e+00 2.456689453125000000e+02
1.004513168334960938e+01 4.375689506530761719e+00 2.456855316162109375e+02
1.005218791961669922e+01 3.934650659561157227e+00 2.456987762451171875e+02
1.006984710693359375e+01 2.828799724578857422e+00 2.457025146484375000e+02
1.007339763641357422e+01 2.604879856109619141e+00 2.456794586181640625e+02
1.008403205871582031e+01 1.935742974281311035e+00 2.456337585449218750e+02
1.009110355377197266e+01 1.492303133010864258e+00 2.456262817382812500e+02
1.010879039764404297e+01 3.826889097690582275e-01 2.455995025634765625e+02
1.012297916412353516e+01 -5.104935169219970703e-01 2.455338745117187500e+02
1.013007068634033203e+01 -9.564891457557678223e-01 2.455065917968750000e+02
1.014768981933593750e+01 -2.056480646133422852e+00 2.455590362548828125e+02
1.016187572479248047e+01 -2.948742389678955078e+00 2.455035095214843750e+02
1.018662261962890625e+01 -4.499748229980468750e+00 2.454894409179687500e+02
1.020077419281005859e+01 -5.387188911437988281e+00 2.454728546142578125e+02
1.020784187316894531e+01 -5.830032348632812500e+00 2.454712066650390625e+02
1.022555732727050781e+01 -6.942599773406982422e+00 2.454271240234375000e+02
1.023964595794677734e+01 -7.822410106658935547e+00 2.454666595458984375e+02
1.024675559997558594e+01 -8.270118713378906250e+00 2.454300689697265625e+02
1.026444816589355469e+01 -9.379767417907714844e+00 2.454083709716796875e+02
1.027863979339599609e+01 -1.027192401885986328e+01 2.453605651855468750e+02
1.028573036193847656e+01 -1.071718788146972656e+01 2.453427124023437500e+02
1.030339908599853516e+01 -1.182386398315429688e+01 2.453428802490234375e+02
1.031750202178955078e+01 -1.270559787750244141e+01 2.453669891357421875e+02
1.032455539703369141e+01 -1.314658641815185547e+01 2.453779449462890625e+02
1.034239864349365234e+01 -1.427297592163085938e+01 2.452480926513671875e+02
1.035656547546386719e+01 -1.516180515289306641e+01 2.452263488769531250e+02
1.036370944976806641e+01 -1.561275768280029297e+01 2.451736450195312500e+02
1.038134288787841797e+01 -1.671532630920410156e+01 2.452014312744140625e+02
1.038483428955078125e+01 -1.693215942382812500e+01 2.452300567626953125e+02
1.039543914794921875e+01 -1.759641265869140625e+01 2.452289428710937500e+02
1.040259647369384766e+01 -1.804867553710937500e+01 2.451696777343750000e+02
1.042026329040527344e+01 -1.915514755249023438e+01 2.451723022460937500e+02
1.044214439392089844e+01 -2.055430412292480469e+01 2.447462921142578125e+02
9.522321701049804688e+00 2.302811050415039062e+01 2.434602508544921875e+02
9.525966644287109375e+00 2.282092475891113281e+01 2.436756896972656250e+02
9.529606819152832031e+00 2.261356544494628906e+01 2.438858032226562500e+02
9.540501594543457031e+00 2.199169540405273438e+01 2.445018768310546875e+02
9.544125556945800781e+00 2.178471183776855469e+01 2.447059326171875000e+02
9.547745704650878906e+00 2.157769012451171875e+01 2.449067535400390625e+02
9.551359176635742188e+00 2.137043762207031250e+01 2.451017913818359375e+02
9.565756797790527344e+00 2.053648376464843750e+01 2.457921142578125000e+02
9.569334030151367188e+00 2.032513046264648438e+01 2.459218597412109375e+02
9.572901725769042969e+00 2.011195564270019531e+01 2.460263824462890625e+02
9.580010414123535156e+00 1.968034934997558594e+01 2.461642761230468750e+02
9.587091445922851562e+00 1.924321746826171875e+01 2.462289886474609375e+02
9.597695350646972656e+00 1.858344841003417969e+01 2.462725219726562500e+02
9.604756355285644531e+00 1.814140892028808594e+01 2.462737426757812500e+02
9.608283996582031250e+00 1.791989326477050781e+01 2.462682647705078125e+02
9.615344047546386719e+00 1.747728729248046875e+01 2.462626190185546875e+02
9.618874549865722656e+00 1.725641441345214844e+01 2.462649230957031250e+02
