4.339851379394531250e+00 6.028032302856445312e+00 2.515364837646484375e+02
4.336308956146240234e+00 6.246155261993408203e+00 2.515333862304687500e+02
4.343277931213378906e+00 5.808845996856689453e+00 2.515299072265625000e+02
4.332700729370117188e+00 6.463692188262939453e+00 2.515248413085937500e+02
4.329087734222412109e+00 6.681191444396972656e+00 2.515158691406250000e+02
4.346552848815917969e+00 5.588262557983398438e+00 2.515107269287109375e+02
4.325492858886718750e+00 6.898869514465332031e+00 2.515084533691406250e+02
4.321905612945556641e+00 7.116629600524902344e+00 2.515017242431640625e+02
4.349680423736572266e+00 5.366284370422363281e+00 2.514791717529296875e+02
4.281715869903564453e+00 -4.031572341918945312e+00 2.514752502441406250e+02
4.285215854644775391e+00 -4.250061988830566406e+00 2.514747924804687500e+02
4.278166294097900391e+00 -3.813619136810302734e+00 2.514716033935546875e+02
4.288655757904052734e+00 -4.469213008880615234e+00 2.514693756103515625e+02
4.274577140808105469e+00 -3.596087217330932617e+00 2.514647216796875000e+02
4.292039871215820312e+00 -4.688986301422119141e+00 2.514593200683593750e+02
4.295380592346191406e+00 -4.909244537353515625e+00 2.514457244873046875e+02
4.352694511413574219e+00 5.143219947814941406e+00 2.514381561279296875e+02
4.298717975616455078e+00 -5.129548072814941406e+00 2.514318695068359375e+02
4.302119731903076172e+00 -5.349153995513916016e+00 2.514232788085937500e+02
4.309126853942871094e+00 -5.786099433898925781e+00 2.514228973388671875e+02
4.305610656738281250e+00 -5.567767143249511719e+00 2.514220581054687500e+02
4.312556743621826172e+00 -6.005398750305175781e+00 2.514166412353515625e+02
4.315861225128173828e+00 -6.226131916046142578e+00 2.513999481201171875e+02
4.355690479278564453e+00 4.919950008392333984e+00 2.513956298828125000e+02
4.319124221801757812e+00 -6.447347164154052734e+00 2.513798675537109375e+02
4.322473526000976562e+00 -6.667611122131347656e+00 2.513668060302734375e+02
4.329467773437500000e+00 -7.104751586914062500e+00 2.513653106689453125e+02
4.451325416564941406e+00 1.256974983215332031e+01 2.513647766113281250e+02
4.325950622558593750e+00 -6.886414527893066406e+00 2.513643798828125000e+02
4.454818248748779297e+00 1.235105419158935547e+01 2.513636016845703125e+02
4.358789443969726562e+00 4.697597026824951172e+00 2.513616027832031250e+02
4.372786998748779297e+00 3.823178291320800781e+00 2.513592071533203125e+02
4.332893371582031250e+00 -7.324150085449218750e+00 2.513586273193359375e+02
4.376264095306396484e+00 3.604362964630126953e+00 2.513567657470703125e+02
4.489799499511718750e+00 1.016457557678222656e+01 2.513564910888671875e+02
4.447717189788818359e+00 1.278751277923583984e+01 2.513560943603515625e+02
4.493285655975341797e+00 9.945826530456542969e+00 2.513547363281250000e+02
4.458208560943603516e+00 1.213152503967285156e+01 2.513537445068359375e+02
4.369206428527832031e+00 4.041005611419677734e+00 2.513530120849609375e+02
4.486213684082031250e+00 1.038246822357177734e+01 2.513496704101562500e+02
4.379630088806152344e+00 3.384469270706176758e+00 2.513449859619140625e+02
4.362092494964599609e+00 4.477131366729736328e+00 2.513445587158203125e+02
4.475632190704345703e+00 1.103768539428710938e+01 2.513443756103515625e+02
4.365594387054443359e+00 4.258546829223632812e+00 2.513442230224609375e+02
4.482635021209716797e+00 1.060043907165527344e+01 2.513435516357421875e+02
4.479123592376708984e+00 1.081897544860839844e+01 2.513430938720703125e+02
4.472102642059326172e+00 1.125608253479003906e+01 2.513424377441406250e+02
4.444043159484863281e+00 1.300476837158203125e+01 2.513419036865234375e+02
4.461576461791992188e+00 1.191179656982421875e+01 2.513419036865234375e+02
4.336171150207519531e+00 -7.545271396636962891e+00 2.513396606445312500e+02
4.496610164642333984e+00 9.725672721862792969e+00 2.513391418457031250e+02
4.468536853790283203e+00 1.147417831420898438e+01 2.513374023437500000e+02
4.465011119842529297e+00 1.169261169433593750e+01 2.513357696533203125e+02
4.382940292358398438e+00 3.164022684097290039e+00 2.513285369873046875e+02
4.440370559692382812e+00 1.322205638885498047e+01 2.513279113769531250e+02
4.360445022583007812e+00 -9.077791213989257812e+00 2.513171844482421875e+02
4.363947868347167969e+00 -9.296300888061523438e+00 2.513169555664062500e+02
4.436719417572021484e+00 1.343951988220214844e+01 2.513156127929687500e+02
4.339373588562011719e+00 -7.767299175262451172e+00 2.513143615722656250e+02
4.499817848205566406e+00 9.504479408264160156e+00 2.513134613037109375e+02
4.356868267059326172e+00 -8.860154151916503906e+00 2.513112945556640625e+02
4.367387294769287109e+00 -9.515595436096191406e+00 2.513112792968750000e+02
4.386228561401367188e+00 2.943340778350830078e+00 2.513101959228515625e+02
4.421268463134765625e+00 7.575943470001220703e-01 2.513078765869140625e+02
4.424759864807128906e+00 5.389042496681213379e-01 2.513066406250000000e+02
4.417721748352050781e+00 9.757319092750549316e-01 2.513045196533203125e+02
4.433047294616699219e+00 1.365684318542480469e+01 2.513016967773437500e+02
4.370770931243896484e+00 -9.735548019409179688e+00 2.513010864257812500e+02
4.353229522705078125e+00 -8.643239974975585938e+00 2.513002777099609375e+02
4.414164066314697266e+00 1.193753719329833984e+00 2.513001861572265625e+02
4.410614490509033203e+00 1.411870837211608887e+00 2.512965850830078125e+02
4.428129673004150391e+00 3.189407885074614923e-01 2.512949981689453125e+02
4.389542579650878906e+00 2.722885847091674805e+00 2.512939453125000000e+02
4.342632770538330078e+00 -7.988680362701416016e+00 2.512938079833984375e+02
4.407060146331787109e+00 1.629943251609802246e+00 2.512925872802734375e+02
4.349594593048095703e+00 -8.426273345947265625e+00 2.512895507812500000e+02
4.403494834899902344e+00 1.847906827926635742e+00 2.512876281738281250e+02
4.346039772033691406e+00 -8.208353042602539062e+00 2.512854766845703125e+02
4.502995491027832031e+00 9.283006668090820312e+00 2.512852935791015625e+02
4.374065399169921875e+00 -9.956612586975097656e+00 2.512833099365234375e+02
4.392910957336425781e+00 2.502967357635498047e+00 2.512823638916015625e+02
4.399917125701904297e+00 2.065763473510742188e+00 2.512816925048828125e+02
4.429294586181640625e+00 1.387354946136474609e+01 2.512808837890625000e+02
4.396377086639404297e+00 2.283994197845458984e+00 2.512788848876953125e+02
4.431338787078857422e+00 9.730821847915649414e-02 2.512698516845703125e+02
4.506198883056640625e+00 9.061716079711914062e+00 2.512591400146484375e+02
4.377244949340820312e+00 -1.017909622192382812e+01 2.512558898925781250e+02
4.425432205200195312e+00 1.408943080902099609e+01 2.512508392333984375e+02
4.398074150085449219e+00 -1.149270343780517578e+01 2.512382202148437500e+02
4.509422779083251953e+00 8.840587615966796875e+00 2.512348022460937500e+02
4.434422969818115234e+00 -1.256580948829650879e-01 2.512340850830078125e+02
4.401489734649658203e+00 -1.171234226226806641e+01 2.512306060791015625e+02
4.394414424896240234e+00 -1.127611541748046875e+01 2.512253112792968750e+02
4.554887771606445312e+00 5.997373580932617188e+00 2.512237701416015625e+02
4.380359649658203125e+00 -1.040240859985351562e+01 2.512229919433593750e+02
4.551346778869628906e+00 6.215664863586425781e+00 2.512208251953125000e+02
4.558308601379394531e+00 5.777941703796386719e+00 2.512163391113281250e+02
4.547749996185302734e+00 6.433440208435058594e+00 2.512130889892578125e+02
4.421460628509521484e+00 1.430450344085693359e+01 2.512115783691406250e+02
4.512654781341552734e+00 8.619504928588867188e+00 2.512111206054687500e+02
4.455168247222900391e+00 -1.440259099006652832e+00 2.512087554931640625e+02
4.451648712158203125e+00 -1.221810102462768555e+00 2.512077484130859375e+02
4.544156551361083984e+00 6.651255130767822266e+00 2.512056427001953125e+02
4.404697418212890625e+00 -1.193461513519287109e+01 2.512053985595703125e+02
4.390639781951904297e+00 -1.106093215942382812e+01 2.512027893066406250e+02
4.540574550628662109e+00 6.869187355041503906e+00 2.511992034912109375e+02
4.437517166137695312e+00 -3.485721051692963202e-01 2.511990051269531250e+02
4.383553028106689453e+00 -1.062477207183837891e+01 2.511967468261718750e+02
4.561564445495605469e+00 5.556911468505859375e+00 2.511944885253906250e+02
4.458498954772949219e+00 -1.660737752914428711e+00 2.511937408447265625e+02
4.447964191436767578e+00 -1.005120277404785156e+00 2.511926727294921875e+02
4.536981105804443359e+00 7.087017059326171875e+00 2.511917419433593750e+02
4.386973857879638672e+00 -1.084437370300292969e+01 2.511894531250000000e+02
4.515903472900390625e+00 8.398550033569335938e+00 2.511888580322265625e+02
4.533351898193359375e+00 7.304525375366210938e+00 2.511811676025390625e+02
4.407904148101806641e+00 -1.215693283081054688e+01 2.511800689697265625e+02
4.444280624389648438e+00 -7.883962392807006836e-01 2.511777496337890625e+02
4.440773010253906250e+00 -5.698105692863464355e-01 2.511776733398437500e+02
4.418385028839111328e+00 -1.281302356719970703e+01 2.511766510009765625e+02
4.421838760375976562e+00 -1.303222274780273438e+01 2.511721954345703125e+02
4.414815425872802734e+00 -1.259529113769531250e+01 2.511714019775390625e+02
4.519204139709472656e+00 8.178043365478515625e+00 2.511710815429687500e+02
4.529706954956054688e+00 7.521902084350585938e+00 2.511692810058593750e+02
4.461717128753662109e+00 -1.882453322410583496e+00 2.511691131591796875e+02
4.411267757415771484e+00 -1.237728881835937500e+01 2.511679077148437500e+02
4.417387008666992188e+00 1.451884078979492188e+01 2.511638031005859375e+02
4.522596359252929688e+00 7.958342552185058594e+00 2.511611175537109375e+02
4.526103019714355469e+00 7.739678859710693359e+00 2.511610260009765625e+02
4.564670562744140625e+00 5.334414958953857422e+00 2.511596374511718750e+02
4.425112247467041016e+00 -1.325376415252685547e+01 2.511524200439453125e+02
-3.149190902709960938e+00 8.486414909362792969e+00 2.511495971679687500e+02
-3.173893213272094727e+00 -3.544861555099487305e+00 2.511483764648437500e+02
-3.152767419815063477e+00 8.704969406127929688e+00 2.511480255126953125e+02
-3.131624698638916016e+00 7.392493247985839844e+00 2.511462707519531250e+02
-3.170479536056518555e+00 9.798403739929199219e+00 2.511462554931640625e+02
-3.167016267776489258e+00 9.579438209533691406e+00 2.511438903808593750e+02
-3.128171205520629883e+00 7.173487663269042969e+00 2.511435241699218750e+02
4.464920997619628906e+00 -2.104339122772216797e+00 2.511433105468750000e+02
-3.145929336547851562e+00 8.266709327697753906e+00 2.511401367187500000e+02
-3.135391473770141602e+00 7.610338211059570312e+00 2.511381072998046875e+02
-3.156593799591064453e+00 8.922636985778808594e+00 2.511378021240234375e+02
-3.195442438125610352e+00 -2.234555482864379883e+00 2.511359558105468750e+02
-3.174343585968017578e+00 1.001597023010253906e+01 2.511347198486328125e+02
-3.163752794265747070e+00 9.359753608703613281e+00 2.511345214843750000e+02
-3.124912738800048828e+00 6.953749179840087891e+00 2.511339721679687500e+02
4.499880790710449219e+00 -4.291622638702392578e+00 2.511334075927734375e+02
-3.192024469375610352e+00 -2.453723430633544922e+00 2.511319885253906250e+02
4.496350765228271484e+00 -4.073284626007080078e+00 2.511314544677734375e+02
-3.160326480865478516e+00 9.140646934509277344e+00 2.511308288574218750e+02
-3.199152469635009766e+00 -2.016686439514160156e+00 2.511297454833984375e+02
4.503342151641845703e+00 -4.510741710662841797e+00 2.511294555664062500e+02
-3.142706871032714844e+00 8.046858787536621094e+00 2.511293640136718750e+02
-3.139192342758178711e+00 7.828066349029541016e+00 2.511287231445312500e+02
4.492783069610595703e+00 -3.855356216430664062e+00 2.511263580322265625e+02
4.489220619201660156e+00 -3.637376070022583008e+00 2.511216278076171875e+02
4.468173503875732422e+00 -2.325742483139038086e+00 2.511214752197265625e+02
-3.178209066390991211e+00 -3.329771280288696289e+00 2.511211090087890625e+02
4.428246974945068359e+00 -1.347712516784667969e+01 2.511208648681640625e+02
4.506742000579833984e+00 -4.730577945709228516e+00 2.511201782226562500e+02
-3.188841104507446289e+00 -2.673945903778076172e+00 2.511198577880859375e+02
4.485677719116210938e+00 -3.419163942337036133e+00 2.511186218261718750e+02
4.567693710327148438e+00 5.111076354980468750e+00 2.511175384521484375e+02
-3.203037500381469727e+00 -1.799574136734008789e+00 2.511175231933593750e+02
4.482119560241699219e+00 -3.201126337051391602e+00 2.511142272949218750e+02
-3.178491830825805664e+00 1.023256301879882812e+01 2.511133422851562500e+02
4.510111808776855469e+00 -4.950757503509521484e+00 2.511083831787109375e+02
-3.185644626617431641e+00 -2.894118070602416992e+00 2.511082153320312500e+02
4.478538513183593750e+00 -2.983329057693481445e+00 2.511079406738281250e+02
4.471517562866210938e+00 -2.546154260635375977e+00 2.511074981689453125e+02
-3.182151079177856445e+00 -3.112961530685424805e+00 2.511068725585937500e+02
4.524119377136230469e+00 -5.825427532196044922e+00 2.511063995361328125e+02
4.413196086883544922e+00 1.473234081268310547e+01 2.511061859130859375e+02
4.527600288391113281e+00 -6.044335365295410156e+00 2.511041412353515625e+02
-3.206966876983642578e+00 -1.582651376724243164e+00 2.511036987304687500e+02
4.474978923797607422e+00 -2.765277385711669922e+00 2.511035766601562500e+02
-3.259901523590087891e+00 -1.186297321319580078e+01 2.511029510498046875e+02
-3.256386280059814453e+00 -1.208167457580566406e+01 2.511023864746093750e+02
4.520539283752441406e+00 -5.607667446136474609e+00 2.511002197265625000e+02
4.513503074645996094e+00 -5.170701980590820312e+00 2.510984039306640625e+02
4.516976833343505859e+00 -5.389703273773193359e+00 2.510954742431640625e+02
-3.182634115219116211e+00 1.044919681549072266e+01 2.510921630859375000e+02
-3.210885763168334961e+00 -1.365653514862060547e+00 2.510903625488281250e+02
4.530939579010009766e+00 -6.264923572540283203e+00 2.510895996093750000e+02
-3.253267526626586914e+00 -1.230244064331054688e+01 2.510881042480468750e+02
-3.263880014419555664e+00 -1.164665031433105469e+01 2.510875396728515625e+02
4.670359611511230469e+00 1.232750701904296875e+01 2.510794677734375000e+02
4.570750713348388672e+00 4.888017654418945312e+00 2.510782775878906250e+02
4.666831016540527344e+00 1.254606246948242188e+01 2.510777282714843750e+02
4.708925247192382812e+00 9.921468734741210938e+00 2.510774993896484375e+02
4.705411434173583984e+00 1.014012432098388672e+01 2.510769958496093750e+02
-3.214804887771606445e+00 -1.148652911186218262e+00 2.510769195556640625e+02
-3.186610698699951172e+00 1.066642665863037109e+01 2.510767669677734375e+02
4.431201457977294922e+00 -1.370285606384277344e+01 2.510740814208984375e+02
4.673786640167236328e+00 1.210810279846191406e+01 2.510723266601562500e+02
4.588201999664306641e+00 3.793762445449829102e+00 2.510705261230468750e+02
4.591694355010986328e+00 3.574928998947143555e+00 2.510691375732421875e+02
4.534207344055175781e+00 -6.486378669738769531e+00 2.510688629150390625e+02
4.701811790466308594e+00 1.035801315307617188e+01 2.510687866210937500e+02
-3.250358819961547852e+00 -1.252431678771972656e+01 2.510665435791015625e+02
-3.190443038940429688e+00 1.088416290283203125e+01 2.510663299560546875e+02
4.663192749023437500e+00 1.276369094848632812e+01 2.510661315917968750e+02
4.712300300598144531e+00 9.701557159423828125e+00 2.510656127929687500e+02
-3.218711376190185547e+00 -9.315812587738037109e-01 2.510639343261718750e+02
4.677180767059326172e+00 1.188840007781982422e+01 2.510621643066406250e+02
4.584596633911132812e+00 4.011467456817626953e+00 2.510620269775390625e+02
4.698216915130615234e+00 1.057596397399902344e+01 2.510610961914062500e+02
-3.268189191818237305e+00 -1.143200588226318359e+01 2.510607147216796875e+02
4.691183090209960938e+00 1.101323986053466797e+01 2.510594482421875000e+02
4.694684505462646484e+00 1.079446601867675781e+01 2.510589141845703125e+02
4.687664031982421875e+00 1.123187160491943359e+01 2.510585174560546875e+02
4.595073699951171875e+00 3.354957342147827148e+00 2.510578918457031250e+02
-3.226036548614501953e+00 1.307110691070556641e+01 2.510572814941406250e+02
-3.194248199462890625e+00 1.110201168060302734e+01 2.510569000244140625e+02
4.680617332458496094e+00 1.166906166076660156e+01 2.510558319091796875e+02
4.684123516082763672e+00 1.145031642913818359e+01 2.510556488037109375e+02
-3.222571849822998047e+00 -7.142911553382873535e-01 2.510525817871093750e+02
4.537524223327636719e+00 -6.707269191741943359e+00 2.510523529052734375e+02
-3.222661256790161133e+00 1.285180187225341797e+01 2.510518188476562500e+02
-3.229740619659423828e+00 1.328934955596923828e+01 2.510514068603515625e+02
4.573948860168457031e+00 4.666306018829345703e+00 2.510513153076171875e+02
4.659491062164306641e+00 1.298081302642822266e+01 2.510490417480468750e+02
4.580938339233398438e+00 4.228655815124511719e+00 2.510489044189453125e+02
-3.198095321655273438e+00 1.131972694396972656e+01 2.510460205078125000e+02
4.540949821472167969e+00 -6.926867008209228516e+00 2.510452880859375000e+02
-3.247445344924926758e+00 -1.274618339538574219e+01 2.510451812744140625e+02
4.715569496154785156e+00 9.480678558349609375e+00 2.510443115234375000e+02
4.544438838958740234e+00 -7.145717144012451172e+00 2.510436248779296875e+02
-3.226375579833984375e+00 -4.967407584190369207e-01 2.510432434082031250e+02
4.577355861663818359e+00 4.446612834930419922e+00 2.510424346923828125e+02
4.598400592803955078e+00 3.134442329406738281e+00 2.510420379638671875e+02
4.547900199890136719e+00 -7.364897251129150391e+00 2.510396270751953125e+02
-3.219533920288085938e+00 1.263167572021484375e+01 2.510377349853515625e+02
4.408856868743896484e+00 1.494478034973144531e+01 2.510360870361328125e+02
-3.233721971511840820e+00 1.350670146942138672e+01 2.510358581542968750e+02
4.655809879302978516e+00 1.319812583923339844e+01 2.510337982177734375e+02
-3.201982975006103516e+00 1.153731632232666016e+01 2.510337371826171875e+02
-3.230220317840576172e+00 -2.793604731559752863e-01 2.510324249267578125e+02
4.575872898101806641e+00 -9.114951133728027344e+00 2.510317993164062500e+02
-3.272603273391723633e+00 -1.121786689758300781e+01 2.510303039550781250e+02
4.572347164154052734e+00 -8.896563529968261719e+00 2.510302124023437500e+02
4.551292896270751953e+00 -7.584917545318603516e+00 2.510296325683593750e+02
4.640349388122558594e+00 5.087493658065795898e-01 2.510290374755859375e+02
4.579344749450683594e+00 -9.334014892578125000e+00 2.510286865234375000e+02
-3.244430303573608398e+00 -1.296753883361816406e+01 2.510272979736328125e+02
4.636804580688476562e+00 7.270271182060241699e-01 2.510257568359375000e+02
4.652202129364013672e+00 1.341605377197265625e+01 2.510249633789062500e+02
4.601707935333251953e+00 2.913708925247192383e+00 2.510244293212890625e+02
4.568763732910156250e+00 -8.678878784179687500e+00 2.510236511230468750e+02
4.643790245056152344e+00 2.893545925617218018e-01 2.510231323242187500e+02
-3.216436862945556641e+00 1.241143989562988281e+01 2.510226287841796875e+02
4.582777500152587891e+00 -9.553572654724121094e+00 2.510221557617187500e+02
-3.205863237380981445e+00 1.175494480133056641e+01 2.510216979980468750e+02
4.648654937744140625e+00 1.363449478149414062e+01 2.510215911865234375e+02
4.718808174133300781e+00 9.259479522705078125e+00 2.510200805664062500e+02
4.633221626281738281e+00 9.449127912521362305e-01 2.510192108154296875e+02
4.645101070404052734e+00 1.385288429260253906e+01 2.510175933837890625e+02
4.554659843444824219e+00 -7.805257320404052734e+00 2.510174102783203125e+02
-3.234222412109375000e+00 -6.263685226440429688e-02 2.510161895751953125e+02
4.565159320831298828e+00 -8.461447715759277344e+00 2.510152587890625000e+02
-3.237859010696411133e+00 1.372357559204101562e+01 2.510149841308593750e+02
-3.209625482559204102e+00 1.197297859191894531e+01 2.510137329101562500e+02
-3.213169574737548828e+00 1.219175338745117188e+01 2.510134124755859375e+02
4.629640102386474609e+00 1.162811517715454102e+00 2.510127105712890625e+02
4.586171150207519531e+00 -9.773632049560546875e+00 2.510121917724609375e+02
4.558076381683349609e+00 -8.025011062622070312e+00 2.510094299316406250e+02
4.561580181121826172e+00 -8.243685722351074219e+00 2.510091247558593750e+02
4.605039596557617188e+00 2.693214416503906250e+00 2.510090179443359375e+02
4.641483306884765625e+00 1.407075881958007812e+01 2.510079345703125000e+02
4.626076221466064453e+00 1.380908250808715820e+00 2.510077819824218750e+02
-3.241483688354492188e+00 -1.318927955627441406e+01 2.510070037841796875e+02
-3.276838302612304688e+00 -1.100278186798095703e+01 2.510060729980468750e+02
4.647077560424804688e+00 6.827557832002639771e-02 2.510035552978515625e+02
4.622517585754394531e+00 1.599078059196472168e+00 2.510034332275390625e+02
4.433865547180175781e+00 -1.393245124816894531e+01 2.510024871826171875e+02
4.618962764739990234e+00 1.817279219627380371e+00 2.509992828369140625e+02
4.608418464660644531e+00 2.473183631896972656e+00 2.509976501464843750e+02
4.722063064575195312e+00 9.038412094116210938e+00 2.509973449707031250e+02
-3.238357067108154297e+00 1.535409539937973022e-01 2.509953613281250000e+02
4.615403652191162109e+00 2.035451889038085938e+00 2.509948577880859375e+02
4.589477539062500000e+00 -9.994812011718750000e+00 2.509945678710937500e+02
4.611880302429199219e+00 2.254000186920166016e+00 2.509935607910156250e+02
-3.242076873779296875e+00 1.394021892547607422e+01 2.509913482666015625e+02
-3.280821561813354492e+00 -1.078639125823974609e+01 2.509905548095703125e+02
4.637772560119628906e+00 1.428790092468261719e+01 2.509900970458984375e+02
-3.284621715545654297e+00 -1.056906509399414062e+01 2.509813232421875000e+02
4.767466068267822266e+00 6.192888259887695312e+00 2.509788970947265625e+02
4.770971298217773438e+00 5.974130153656005859e+00 2.509786529541015625e+02
-3.242404937744140625e+00 3.701102435588837225e-01 2.509775695800781250e+02
4.613837718963623047e+00 -1.152771663665771484e+01 2.509774627685546875e+02
4.725341796875000000e+00 8.817544937133789062e+00 2.509767608642578125e+02
-3.238902807235717773e+00 -1.341296768188476562e+01 2.509741058349609375e+02
-3.253116607666015625e+00 1.025910258293151855e+00 2.509737243652343750e+02
-3.256695270538330078e+00 1.244484305381774902e+00 2.509721832275390625e+02
4.763882160186767578e+00 6.410880565643310547e+00 2.509720916748046875e+02
-3.288432836532592773e+00 -1.035177898406982422e+01 2.509717407226562500e+02
4.650224685668945312e+00 -1.543453335762023926e-01 2.509716339111328125e+02
-3.249664783477783203e+00 8.068087697029113770e-01 2.509708862304687500e+02
-3.246172189712524414e+00 5.878823399543762207e-01 2.509694976806640625e+02
4.617230892181396484e+00 -1.174784946441650391e+01 2.509673614501953125e+02
4.592667102813720703e+00 -1.021749877929687500e+01 2.509667053222656250e+02
-3.246334552764892578e+00 1.415675735473632812e+01 2.509662780761718750e+02
4.774341106414794922e+00 5.754014968872070312e+00 2.509660797119140625e+02
-3.260454416275024414e+00 1.462311029434204102e+00 2.509643707275390625e+02
4.633969783782958984e+00 1.450433158874511719e+01 2.509642181396484375e+02
4.760285377502441406e+00 6.628746509552001953e+00 2.509640350341796875e+02
4.610154628753662109e+00 -1.131136131286621094e+01 2.509621276855468750e+02
-3.292277812957763672e+00 -1.013465404510498047e+01 2.509609680175781250e+02
-3.288865327835083008e+00 3.211921930313110352e+00 2.509595336914062500e+02
4.728639602661132812e+00 8.596835136413574219e+00 2.509578552246093750e+02
4.671109199523925781e+00 -1.468358278274536133e+00 2.509569854736328125e+02
4.756697654724121094e+00 6.846717357635498047e+00 2.509568634033203125e+02
-3.292480230331420898e+00 3.430380344390869141e+00 2.509567413330078125e+02
-3.264305114746093750e+00 1.679774999618530273e+00 2.509534301757812500e+02
4.667545795440673828e+00 -1.250278592109680176e+00 2.509520568847656250e+02
-3.324451923370361328e+00 5.398835659027099609e+00 2.509510040283203125e+02
-3.296102046966552734e+00 -9.917403221130371094e+00 2.509509887695312500e+02
-3.285608053207397461e+00 2.992033004760742188e+00 2.509499664306640625e+02
4.753110885620117188e+00 7.064709186553955078e+00 2.509498138427734375e+02
-3.328021049499511719e+00 5.617500305175781250e+00 2.509498138427734375e+02
4.404312610626220703e+00 1.515575695037841797e+01 2.509488067626953125e+02
-3.310331344604492188e+00 -9.043054580688476562e+00 2.509476318359375000e+02
-3.306810140609741211e+00 -9.261823654174804688e+00 2.509472198486328125e+02
-3.299784183502197266e+00 -9.699444770812988281e+00 2.509458160400390625e+02
-3.303335905075073242e+00 -9.480822563171386719e+00 2.509452209472656250e+02
4.674472332000732422e+00 -1.688696146011352539e+00 2.509440307617187500e+02
-3.314007282257080078e+00 -8.825037002563476562e+00 2.509427642822265625e+02
-3.296433925628662109e+00 3.647500753402709961e+00 2.509422607421875000e+02
4.749505519866943359e+00 7.282530784606933594e+00 2.509411010742187500e+02
4.731961250305175781e+00 8.376330375671386719e+00 2.509410858154296875e+02
-3.268199443817138672e+00 1.897068738937377930e+00 2.509409790039062500e+02
4.777552127838134766e+00 5.532294750213623047e+00 2.509390869140625000e+02
-3.250667572021484375e+00 1.437309265136718750e+01 2.509387207031250000e+02
4.620400428771972656e+00 -1.197093963623046875e+01 2.509375610351562500e+02
4.653346061706542969e+00 -3.772743940353394110e-01 2.509374542236328125e+02
-3.282521247863769531e+00 2.771451711654663086e+00 2.509345703125000000e+02
-3.321398735046386719e+00 5.178200721740722656e+00 2.509345092773437500e+02
4.595802307128906250e+00 -1.044091224670410156e+01 2.509340667724609375e+02
-3.346080064773559570e+00 -6.857832908630371094e+00 2.509334564208984375e+02
4.663819789886474609e+00 -1.033996582031250000e+00 2.509327392578125000e+02
4.606309890747070312e+00 -1.109709072113037109e+01 2.509325714111328125e+02
4.745889186859130859e+00 7.500252723693847656e+00 2.509313659667968750e+02
-3.342633247375488281e+00 -7.076976776123046875e+00 2.509304809570312500e+02
-3.317918300628662109e+00 -8.608165740966796875e+00 2.509297790527343750e+02
-3.272069931030273438e+00 2.114479303359985352e+00 2.509293823242187500e+02
4.630062103271484375e+00 1.471995544433593750e+01 2.509290924072265625e+02
4.735331535339355469e+00 8.156254768371582031e+00 2.509285736083984375e+02
4.742298126220703125e+00 7.718231678009033203e+00 2.509239349365234375e+02
-3.279315233230590820e+00 2.551334857940673828e+00 2.509232330322265625e+02
-3.332331895828247070e+00 5.833368778228759766e+00 2.509231567382812500e+02
4.738771915435791016e+00 7.936843872070312500e+00 2.509224548339843750e+02
-3.300559759140014648e+00 3.863960504531860352e+00 2.509218750000000000e+02
-3.275821208953857422e+00 2.332379579544067383e+00 2.509218444824218750e+02
4.677725315093994141e+00 -1.910281896591186523e+00 2.509213562011718750e+02
-3.349993228912353516e+00 -6.640889644622802734e+00 2.509204711914062500e+02
-3.236963033676147461e+00 -1.364009571075439453e+01 2.509189605712890625e+02
4.637725830078125000e+00 -1.306702709197998047e+01 2.509185943603515625e+02
4.656606197357177734e+00 -5.987259745597839355e-01 2.509154052734375000e+02
4.660114288330078125e+00 -8.174589872360229492e-01 2.509153289794921875e+02
4.634174346923828125e+00 -1.284895992279052734e+01 2.509147644042968750e+02
-3.339577913284301758e+00 -7.297993659973144531e+00 2.509140625000000000e+02
-3.318510293960571289e+00 4.956909656524658203e+00 2.509122772216796875e+02
4.599046230316162109e+00 -1.066296195983886719e+01 2.509109191894531250e+02
-3.322015523910522461e+00 -8.392185211181640625e+00 2.509104156494140625e+02
4.602548122406005859e+00 -1.088170242309570312e+01 2.509104003906250000e+02
4.641139507293701172e+00 -1.328693485260009766e+01 2.509103240966796875e+02
4.623579502105712891e+00 -1.219392108917236328e+01 2.509086608886718750e+02
-3.255143880844116211e+00 1.458900260925292969e+01 2.509061279296875000e+02
4.630534648895263672e+00 -1.263204288482666016e+01 2.509032897949218750e+02
-3.304669857025146484e+00 4.080507278442382812e+00 2.509020690917968750e+02
4.780652523040771484e+00 5.309433460235595703e+00 2.509020538330078125e+02
4.680994033813476562e+00 -2.131726264953613281e+00 2.508999481201171875e+02
4.626948356628417969e+00 -1.241443061828613281e+01 2.508963623046875000e+02
-3.354241371154785156e+00 -6.425512790679931641e+00 2.508959808349609375e+02
4.644475460052490234e+00 -1.350791931152343750e+01 2.508950500488281250e+02
-3.315501928329467773e+00 4.736061573028564453e+00 2.508941497802734375e+02
-3.336640596389770508e+00 -7.519592761993408203e+00 2.508935852050781250e+02
4.436082363128662109e+00 -1.416798114776611328e+01 2.508929443359375000e+02
-3.326128959655761719e+00 -8.176267623901367188e+00 2.508904724121093750e+02
-3.308591842651367188e+00 4.297807216644287109e+00 2.508887176513671875e+02
-3.312216281890869141e+00 4.516275882720947266e+00 2.508856048583984375e+02
4.684340953826904297e+00 -2.352290630340576172e+00 2.508855590820312500e+02
4.626018047332763672e+00 1.493454837799072266e+01 2.508820648193359375e+02
-3.333519935607910156e+00 -7.740334987640380859e+00 2.508793487548828125e+02
4.687770366668701172e+00 -2.571923494338989258e+00 2.508785247802734375e+02
-3.330015420913696289e+00 -7.959227561950683594e+00 2.508783569335937500e+02
4.691255092620849609e+00 -2.790925264358520508e+00 2.508763885498046875e+02
4.694746017456054688e+00 -3.009866237640380859e+00 2.508747558593750000e+02
-3.337289810180664062e+00 6.046827316284179688e+00 2.508742370605468750e+02
-3.390319585800170898e+00 -4.241253852844238281e+00 2.508707885742187500e+02
4.647703647613525391e+00 -1.373037433624267578e+01 2.508703155517578125e+02
4.698191165924072266e+00 -3.229327440261840820e+00 2.508691101074218750e+02
-3.393917560577392578e+00 -4.022762298583984375e+00 2.508686065673828125e+02
-3.358607292175292969e+00 -6.210663795471191406e+00 2.508674316406250000e+02
4.740238666534423828e+00 -5.854689598083496094e+00 2.508638916015625000e+02
4.783735275268554688e+00 5.086354255676269531e+00 2.508633880615234375e+02
-3.259960651397705078e+00 1.480389308929443359e+01 2.508618469238281250e+02
4.715642452239990234e+00 -4.324062824249267578e+00 2.508607635498046875e+02
4.701596736907958984e+00 -3.449269294738769531e+00 2.508598175048828125e+02
4.719140529632568359e+00 -4.542921543121337891e+00 2.508597564697265625e+02
4.743693828582763672e+00 -6.074068546295166016e+00 2.508590240478515625e+02
4.736653327941894531e+00 -5.636916637420654297e+00 2.508569335937500000e+02
4.712085247039794922e+00 -4.105911254882812500e+00 2.508563995361328125e+02
4.804704666137695312e+00 3.772799253463745117e+00 2.508556060791015625e+02
-3.387252569198608398e+00 -4.462157726287841797e+00 2.508547821044921875e+02
4.808195114135742188e+00 3.553828239440917969e+00 2.508539123535156250e+02
4.722581386566162109e+00 -4.762464523315429688e+00 2.508536376953125000e+02
4.705019950866699219e+00 -3.669007301330566406e+00 2.508521423339843750e+02
4.708522319793701172e+00 -3.887823343276977539e+00 2.508515167236328125e+02
-3.397995948791503906e+00 -3.806421756744384766e+00 2.508500366210937500e+02
4.733040332794189453e+00 -5.419462203979492188e+00 2.508475494384765625e+02
4.801099777221679688e+00 3.990582942962646484e+00 2.508468780517578125e+02
4.726011276245117188e+00 -4.982137680053710938e+00 2.508465881347656250e+02
4.886724948883056641e+00 1.230884838104248047e+01 2.508464355468750000e+02
4.729484558105468750e+00 -5.201298236846923828e+00 2.508433685302734375e+02
4.883176803588867188e+00 1.252733039855957031e+01 2.508427581787109375e+02
4.811575412750244141e+00 3.333703756332397461e+00 2.508422393798828125e+02
-3.235676527023315430e+00 -1.387075996398925781e+01 2.508411712646484375e+02
4.890174865722656250e+00 1.208948040008544922e+01 2.508408660888671875e+02
4.746992588043212891e+00 -6.295381546020507812e+00 2.508400726318359375e+02
-3.362953424453735352e+00 -5.995687961578369141e+00 2.508395996093750000e+02
4.925240993499755859e+00 9.900977134704589844e+00 2.508385620117187500e+02
4.921698570251464844e+00 1.011947917938232422e+01 2.508353729248046875e+02
4.786911964416503906e+00 4.864179611206054688e+00 2.508330993652343750e+02
4.797422885894775391e+00 4.207630634307861328e+00 2.508316040039062500e+02
4.893575668334960938e+00 1.186967849731445312e+01 2.508308258056640625e+02
4.928661346435546875e+00 9.681310653686523438e+00 2.508302001953125000e+02
4.879524230957031250e+00 1.274491500854492188e+01 2.508295135498046875e+02
-3.384520769119262695e+00 -4.684609413146972656e+00 2.508272857666015625e+02
4.918085098266601562e+00 1.033733367919921875e+01 2.508256530761718750e+02
-3.381129980087280273e+00 8.667942047119140625e+00 2.508255920410156250e+02
4.650706768035888672e+00 -1.395593452453613281e+01 2.508255462646484375e+02
4.814901351928710938e+00 3.112979173660278320e+00 2.508254699707031250e+02
-3.377599716186523438e+00 8.449046134948730469e+00 2.508254089355468750e+02
-3.402322530746459961e+00 -3.591179609298706055e+00 2.508229217529296875e+02
4.896998405456542969e+00 1.165005588531494141e+01 2.508227233886718750e+02
4.900468349456787109e+00 1.143086719512939453e+01 2.508191375732421875e+02
4.793775081634521484e+00 4.425000190734863281e+00 2.508190155029296875e+02
-3.342443943023681641e+00 6.259607791900634766e+00 2.508186340332031250e+02
4.903967857360839844e+00 1.121193408966064453e+01 2.508181762695312500e+02
4.621778488159179688e+00 1.514766407012939453e+01 2.508179473876953125e+02
4.790253162384033203e+00 4.643662929534912109e+00 2.508177947998046875e+02
-3.399038791656494141e+00 9.761548995971679688e+00 2.508176879882812500e+02
4.914484024047851562e+00 1.055531406402587891e+01 2.508170928955078125e+02
4.907455921173095703e+00 1.099290561676025391e+01 2.508162536621093750e+02
4.910948276519775391e+00 1.077390670776367188e+01 2.508146362304687500e+02
-3.384987115859985352e+00 8.885684967041015625e+00 2.508145751953125000e+02
-3.367228507995605469e+00 -5.780351161956787109e+00 2.508142242431640625e+02
-3.395606517791748047e+00 9.542304992675781250e+00 2.508141784667968750e+02
4.750211715698242188e+00 -6.517691612243652344e+00 2.508139801025390625e+02
-3.374428749084472656e+00 8.228863716125488281e+00 2.508129272460937500e+02
