2.475901126861572266e+00 1.464467525482177734e+01 2.529060516357421875e+02 3.065905336250670521e-01 8.466554401047053924e-01 4.349446061656637164e-01
2.488328456878662109e+00 1.447700881958007812e+01 2.534563903808593750e+02 3.241538529551805103e-01 8.062047806181606990e-01 4.949324512726303582e-01
2.520778894424438477e+00 1.394989871978759766e+01 2.548123168945312500e+02 3.310965995131492923e-01 5.734721470722379255e-01 7.493361984604685055e-01
2.541627407073974609e+00 1.312263870239257812e+01 2.552395019531250000e+02 3.286837386059863753e-01 3.158898514293613791e-01 8.900452807244851883e-01
2.556137800216674805e+00 1.225929069519042969e+01 2.552754821777343750e+02 3.283643487053540255e-01 1.482322150004448391e-01 9.328472891826242730e-01
2.559642791748046875e+00 1.204274463653564453e+01 2.552769165039062500e+02 3.187181145287769635e-01 9.975658829456733601e-02 9.425854797115482686e-01
2.573390722274780273e+00 1.117491245269775391e+01 2.552657318115234375e+02 3.132480047099707177e-01 6.162595719108965829e-03 9.496513623215758759e-01
2.579976558685302734e+00 1.073919296264648438e+01 2.552421722412109375e+02 3.154206625006815146e-01 -1.184847160553285060e-02 9.488779791881799541e-01
2.596316814422607422e+00 9.648911476135253906e+00 2.551754302978515625e+02 3.246211998915156105e-01 -1.241342771595377661e-02 9.457626464358450669e-01
2.621435403823852539e+00 8.136816978454589844e+00 2.552217559814453125e+02 3.286746365064720510e-01 3.440498053850520998e-03 9.444369466991853201e-01
2.635129213333129883e+00 7.268497943878173828e+00 2.552070617675781250e+02 3.375101047045568348e-01 9.498750074940647686e-03 9.412739786955405252e-01
2.660363197326660156e+00 5.757723331451416016e+00 2.552611236572265625e+02 3.171272725283613148e-01 1.052986987821330662e-02 9.483245303476391941e-01
2.676682949066162109e+00 4.666683673858642578e+00 2.551925506591796875e+02 3.153119512499655275e-01 8.737640994757111396e-03 9.489478526393250180e-01
2.698060274124145508e+00 3.370205163955688477e+00 2.552232360839843750e+02 3.382052540539368102e-01 -1.992415935690905384e-04 9.410723492022807779e-01
2.709715604782104492e+00 2.729288816452026367e+00 2.552998809814453125e+02 3.372260649862874882e-01 -2.960790931644475469e-04 9.414236524705733578e-01
2.716772317886352539e+00 2.296780586242675781e+00 2.553059234619140625e+02 3.442027329154377924e-01 -3.473658069673776641e-04 9.388952859560750763e-01
2.723155021667480469e+00 1.859152913093566895e+00 2.552691650390625000e+02 3.509669491811769348e-01 -3.348644853050353459e-03 9.363818596919234460e-01
2.739727020263671875e+00 7.695592641830444336e-01 2.552161865234375000e+02 3.647134484210700633e-01 -1.552362223809449632e-02 9.309903961338271694e-01
2.753337144851684570e+00 -9.950818866491320525e-02 2.551960754394531250e+02 3.658342229046142036e-01 -1.484808044177699654e-02 9.305615809063748634e-01
2.777194738388061523e+00 -1.620205879211425781e+00 2.551632995605468750e+02 3.940278588159141782e-01 -3.130816547011847951e-03 9.190931641921263884e-01
2.791409730911254883e+00 -2.484416007995605469e+00 2.551817932128906250e+02 3.974508585009868811e-01 2.600874537812509352e-03 9.176197744863975325e-01
2.815736293792724609e+00 -4.001243114471435547e+00 2.551790008544921875e+02 4.033083236369759961e-01 4.143265821782891010e-03 9.150547685430977518e-01
2.834306240081787109e+00 -5.074207305908203125e+00 2.552541198730468750e+02 3.941031824056545063e-01 1.617302343894478365e-03 9.190647778861205097e-01
2.853016614913940430e+00 -6.393193244934082031e+00 2.551135406494140625e+02 4.361473779383715499e-01 -3.648970626302462661e-03 8.998678512597567680e-01
2.870325326919555664e+00 -7.477328300476074219e+00 2.551071624755859375e+02 4.301977718356718161e-01 -9.409965158937369512e-03 9.026856206140266847e-01
2.894316673278808594e+00 -8.997381210327148438e+00 2.550825195312500000e+02 4.105106777910539906e-01 -1.501198966637583287e-02 9.117322104575369401e-01
2.908280849456787109e+00 -9.863600730895996094e+00 2.550850372314453125e+02 4.217838756939683020e-01 -1.579543980579047394e-02 9.065588046486100504e-01
2.931232929229736328e+00 -1.139396286010742188e+01 2.549922485351562500e+02 4.600980531090561043e-01 -1.507566050871054220e-01 8.749755582574102464e-01
2.944984436035156250e+00 -1.226242637634277344e+01 2.549806518554687500e+02 4.692139728146088040e-01 -3.161700481388162731e-01 8.245451766734375187e-01
2.615062952041625977e+00 -4.852400302886962891e+00 2.553199768066406250e+02 2.881298546176253028e-01 4.599680967808162692e-04 9.575912360226445097e-01
2.618449211120605469e+00 -5.069757461547851562e+00 2.553141021728515625e+02 2.920467410500516281e-01 -5.276837154795245132e-04 9.564039013889165108e-01
2.723608016967773438e+00 -1.331266689300537109e+01 2.538103485107421875e+02 4.670734439520723980e-01 -6.765136993951718081e-01 5.693607050766755773e-01
2.712876558303833008e+00 -1.366956329345703125e+01 2.529042053222656250e+02 4.354448506217804549e-01 -7.667586152071728112e-01 4.716662040813968115e-01
2.304082632064819336e+00 9.902244806289672852e-01 2.553088836669921875e+02 2.511970203653004496e-01 -1.622572269727377836e-02 9.677999704910853485e-01
2.030956029891967773e+00 -1.493517208099365234e+01 2.504468231201171875e+02 1.000162285706064358e-01 -8.779082838100880082e-01 4.682668034786772737e-01
1.323803663253784180e+00 1.574209594726562500e+01 2.507202758789062500e+02 2.646128128678426963e-02 9.045634192920377625e-01 4.255171219485286982e-01
1.361773133277893066e+00 1.498110294342041016e+01 2.519984893798828125e+02 6.891971543013081236e-02 9.253969574588704061e-01 3.726802167420420475e-01
1.387725949287414551e+00 1.463650703430175781e+01 2.530124664306640625e+02 1.012352289594646987e-01 8.961713017744569187e-01 4.320051229943924209e-01
1.401396036148071289e+00 1.446840476989746094e+01 2.535573120117187500e+02 1.104263377781427719e-01 8.468426840697359514e-01 5.202532963494540530e-01
1.414444565773010254e+00 1.429781818389892578e+01 2.540692291259765625e+02 1.269232998071180007e-01 7.697457014316633206e-01 6.256053317336330855e-01
1.453438162803649902e+00 1.332022190093994141e+01 2.552252655029296875e+02 1.130155063185387249e-01 3.612855405110907969e-01 9.255810356468920919e-01
1.461387753486633301e+00 1.289177513122558594e+01 2.552778015136718750e+02 1.148985134966222926e-01 2.633627940997937955e-01 9.578300320412886926e-01
1.475204467773437500e+00 1.202434825897216797e+01 2.552710723876953125e+02 1.104107995559314576e-01 1.020346771831858318e-01 9.886346038823154991e-01
1.491829872131347656e+00 1.093658542633056641e+01 2.552277679443359375e+02 1.090480428830960385e-01 -3.924901508806031766e-03 9.940287317233403863e-01
1.512855648994445801e+00 9.636975288391113281e+00 2.552337799072265625e+02 1.120695754088074925e-01 -1.535553704608323862e-02 9.935817116622648326e-01
1.532307744026184082e+00 8.328462600708007812e+00 2.551545257568359375e+02 1.181342164508556863e-01 1.874308267534125372e-03 9.929958680035183560e-01
1.549925923347473145e+00 7.245939254760742188e+00 2.551647338867187500e+02 1.260430278521905145e-01 9.680879255295192845e-03 9.919775379043098695e-01
1.572512507438659668e+00 5.955754280090332031e+00 2.552558288574218750e+02 1.150261763342244059e-01 1.168978300229353735e-02 9.932936764780531114e-01
1.593256235122680664e+00 4.654758930206298828e+00 2.552467346191406250e+02 1.149354410811614380e-01 1.365189692282537358e-02 9.932791501354930608e-01
1.611125588417053223e+00 3.574299335479736328e+00 2.552710876464843750e+02 1.015553423516425968e-01 5.340431012136310704e-03 9.948155568930581172e-01
1.632453680038452148e+00 2.277217388153076172e+00 2.552941589355468750e+02 1.127953614999753912e-01 -1.712272038008067973e-03 9.936167644260828213e-01
1.635788440704345703e+00 2.059609413146972656e+00 2.552859191894531250e+02 1.140434885054221748e-01 -3.244343796211393485e-03 9.934704610419202719e-01
1.652052879333496094e+00 9.687287807464599609e-01 2.552221984863281250e+02 1.196939884851321717e-01 -1.663433518641734346e-02 9.926714703331747103e-01
1.670530915260314941e+00 -1.072714552283287048e-01 2.552803497314453125e+02 1.242955723691752390e-01 -1.275778883927560121e-02 9.921632171741460171e-01
1.689984679222106934e+00 -1.417159438133239746e+00 2.552000732421875000e+02 1.404124319171774216e-01 -1.693499513019977630e-03 9.900916528395254934e-01
1.708220601081848145e+00 -2.494533538818359375e+00 2.552450714111328125e+02 1.422452216271160585e-01 1.345092763537838630e-03 9.898305348137681481e-01
1.728655576705932617e+00 -3.797683238983154297e+00 2.552189331054687500e+02 1.536998316315498492e-01 6.425868491851537308e-03 9.880966905979184922e-01
1.749607563018798828e+00 -5.097045421600341797e+00 2.552215118408203125e+02 1.626676310699466943e-01 3.891383566545622043e-03 9.866732483127480524e-01
1.767214536666870117e+00 -6.178659439086914062e+00 2.552319030761718750e+02 1.724541904735358844e-01 -3.145678955863349903e-04 9.850174887965983395e-01
1.788614511489868164e+00 -7.474334239959716797e+00 2.552596282958984375e+02 1.666361365192008115e-01 -5.961619079405107956e-03 9.860004346367734485e-01
1.807714104652404785e+00 -8.788349151611328125e+00 2.551584625244140625e+02 1.858339240283234939e-01 -1.403966944848991996e-02 9.824808600486892862e-01
1.825476646423339844e+00 -9.868632316589355469e+00 2.551776580810546875e+02 1.744349720044438556e-01 -1.788198649786822483e-02 9.845063103407204474e-01
1.846728086471557617e+00 -1.116531658172607422e+01 2.551972351074218750e+02 1.732208910652384970e-01 -1.106233068668230346e-01 9.786506051070593681e-01
1.867362618446350098e+00 -1.246713256835937500e+01 2.551820526123046875e+02 2.001094373379851965e-01 -3.580945054295020524e-01 9.119893301291825960e-01
1.856982588768005371e+00 -1.329818153381347656e+01 2.540022277832031250e+02 2.452484872130163973e-01 -7.299255760850130725e-01 6.380139754712970124e-01
1.844050049781799316e+00 -1.365880203247070312e+01 2.530715637207031250e+02 2.345718436297875853e-01 -8.487001036353628569e-01 4.740086331127807417e-01
1.830618143081665039e+00 -1.402483749389648438e+01 2.521117401123046875e+02 1.827052069502443921e-01 -8.760577392391979412e-01 4.462528934050443707e-01
1.820576429367065430e+00 -1.436211299896240234e+01 2.513433380126953125e+02 1.443703512667513233e-01 -8.838347741023918624e-01 4.449643735879189044e-01
1.811959981918334961e+00 -1.493762588500976562e+01 2.504553527832031250e+02 7.201762931893725128e-02 -8.868450714090532205e-01 4.564200700941529742e-01
2.798851393163200030e-02 1.533145904541015625e+01 2.512684173583984375e+02 -3.840691987120756212e-02 9.175764559088849248e-01 3.956998307653117886e-01
8.102358132600780138e-02 1.462050247192382812e+01 2.530717773437500000e+02 -8.329002141361256661e-02 8.906925267917799038e-01 4.469111713195301205e-01
9.655664861202239990e-02 1.445355510711669922e+01 2.536287536621093750e+02 -9.683386939485050249e-02 8.409062482019494800e-01 5.324470710530224693e-01
1.237480118870735030e-01 1.410484123229980469e+01 2.545643615722656250e+02 -1.062383902979713163e-01 6.655376360538565184e-01 7.387645493814251063e-01
1.545291841030121127e-01 1.307806301116943359e+01 2.551821594238281250e+02 -1.093530940034989074e-01 2.978701015122129925e-01 9.483223626262146100e-01
1.726946681737900058e-01 1.199753570556640625e+01 2.552153167724609375e+02 -1.037627854753898210e-01 1.046120187225576259e-01 9.890852389400922595e-01
1.970281004905700961e-01 1.048000240325927734e+01 2.552107696533203125e+02 -8.758373742090620750e-02 -1.391224886759351298e-02 9.960600073644317876e-01
2.108760327100754062e-01 9.612590789794921875e+00 2.552055969238281250e+02 -8.130524887578360893e-02 -1.349091256285603335e-02 9.965979388818082541e-01
2.341810464859009067e-01 8.090003967285156250e+00 2.551529235839843750e+02 -7.462476491458952532e-02 3.436372690937914125e-03 9.972057640247429244e-01
2.477343529462814053e-01 7.221008300781250000e+00 2.551338348388671875e+02 -7.050463664822254062e-02 8.374969570804711994e-03 9.974762935006477038e-01
2.770754992961884100e-01 5.494585990905761719e+00 2.552005615234375000e+02 -6.701273052703229927e-02 1.110131904909022679e-02 9.976903601131372756e-01
2.906871140003203791e-01 4.625950813293457031e+00 2.551842346191406250e+02 -6.801461623870085071e-02 9.344953095693095402e-03 9.976405584325156450e-01
3.126263618469237726e-01 3.331291198730468750e+00 2.552315216064453125e+02 -6.719785068214906287e-02 5.045514983107976829e-04 9.977395423112612738e-01
3.309727311134337824e-01 2.253040790557861328e+00 2.552741546630859375e+02 -6.683073104466108472e-02 -6.012052888450632876e-03 9.977462145295780127e-01
3.562154769897460938e-01 5.043937563896179199e-01 2.551476745605468750e+02 -5.660910787321329907e-02 -1.169882489457995875e-02 9.983278752002695544e-01
3.669831454753875732e-01 -1.439080834388732910e-01 2.551618957519531250e+02 -5.113303707227191686e-02 -8.927052300525088746e-03 9.986519515111305090e-01
3.923096954822539728e-01 -1.655156373977661133e+00 2.552048339843750000e+02 -4.128088716390703600e-02 3.579443297042421770e-03 9.991411691751291846e-01
4.059578478336334229e-01 -2.523656129837036133e+00 2.551901550292968750e+02 -4.413357577699860562e-02 4.969886496387382335e-03 9.990132770475820267e-01
4.348087608814240057e-01 -4.250827312469482422e+00 2.552351226806640625e+02 -4.105249049731753835e-02 5.650404026232793211e-03 9.991410140507234194e-01
4.481168091297150213e-01 -5.121487617492675781e+00 2.552042541503906250e+02 -3.991235701008737091e-02 7.151499341889040046e-03 9.991775917298496568e-01
4.695462882518767755e-01 -6.417933464050292969e+00 2.552281646728515625e+02 -2.850400446933467474e-02 1.379752213390316633e-03 9.995927260704940975e-01
4.870814383029937744e-01 -7.500328540802001953e+00 2.552327117919921875e+02 -2.527456203418585248e-02 -6.725068724925287178e-03 9.996579264751643823e-01
5.146142244338989258e-01 -9.235692977905273438e+00 2.552148437500000000e+02 -1.785682513565504601e-02 -1.307027183739301220e-02 9.997551209122018667e-01
5.243499279022216797e-01 -9.890641212463378906e+00 2.551796264648437500e+02 -1.430316433908305346e-02 -1.718020187130961732e-02 9.997500988514830267e-01
5.500746369361877441e-01 -1.139741420745849609e+01 2.552429656982421875e+02 -1.846519478450880936e-02 -1.236664899019151442e-01 9.921520225534542492e-01
5.655598044395446777e-01 -1.249469184875488281e+01 2.551481933593750000e+02 -8.849478604738093834e-03 -3.563616687063188015e-01 9.343061852547440704e-01
5.052029490470886230e-01 -1.440779304504394531e+01 2.511949462890625000e+02 1.441545796268846671e-03 -9.037186246540861445e-01 4.281244788598805306e-01
-1.667159944772720059e-01 1.496008300781250000e+01 2.520426635742187500e+02 -8.327473552427264170e-02 9.204889710768231481e-01 3.817923159903744978e-01
3.298849165439606268e-01 -1.336172389984130859e+01 2.537595672607421875e+02 -4.945460586838801298e-02 -7.853513407723486939e-01 6.170717247658301652e-01
3.136091232299805243e-01 -1.372377681732177734e+01 2.528208160400390625e+02 -3.376658274690804568e-02 -8.975108120381435350e-01 4.396978055030845156e-01
-1.088825583457946777e+00 1.569467258453369141e+01 2.506280670166015625e+02 -1.630405256122407220e-01 8.744148060895950980e-01 4.569644777216056997e-01
-1.040231704711914062e+00 1.494746494293212891e+01 2.520611572265625000e+02 -2.479936133907209572e-01 8.795618537372521528e-01 4.060420091169167911e-01
-5.258997082710266113e-01 -1.303991413116455078e+01 2.545393829345703125e+02 -2.257044982947493394e-01 -5.863816534934354063e-01 7.779550346233516933e-01
-5.396079421043395996e-01 -1.337170886993408203e+01 2.537922210693359375e+02 -2.171986221091476710e-01 -7.691200686659491748e-01 6.010649536690467754e-01
-5.579082369804382324e-01 -1.373507976531982422e+01 2.528450469970703125e+02 -1.979319236074984778e-01 -8.696106072544771415e-01 4.523276968830616807e-01
-5.894793272018432617e-01 -1.443096160888671875e+01 2.511673431396484375e+02 -1.017842214137259088e-01 -8.857968729567045063e-01 4.527735329403937414e-01
-6.017948389053344727e-01 -1.499962711334228516e+01 2.503250427246093750e+02 -5.238308510844864874e-02 -8.794569967838899993e-01 4.730870989599925691e-01
-1.225769996643066406e+00 1.460327339172363281e+01 2.531175384521484375e+02 -3.274575280770187780e-01 8.238585710380550431e-01 4.626322753903172047e-01
-1.208555579185485840e+00 1.443653869628906250e+01 2.536764068603515625e+02 -3.438050667220475809e-01 7.748677006890308805e-01 5.304508672112270284e-01
-1.192502379417419434e+00 1.426603221893310547e+01 2.541882324218750000e+02 -3.639479162131142309e-01 7.003906132149608776e-01 6.139991068434084154e-01
-1.151353359222412109e+00 1.327081775665283203e+01 2.551540527343750000e+02 -3.406332445622047844e-01 3.368011853154763702e-01 8.778006346939578597e-01
-1.128612995147705078e+00 1.197723102569580078e+01 2.552265930175781250e+02 -3.319595377796836222e-01 9.659775621188444739e-02 9.383345558871463155e-01
-1.112430334091186523e+00 1.088832092285156250e+01 2.551737823486328125e+02 -3.150521034767802542e-01 1.622664245683325254e-03 9.490729893193684541e-01
-1.091281294822692871e+00 9.588599205017089844e+00 2.551812896728515625e+02 -2.923339411522359876e-01 -6.489598857792439578e-03 9.562942810437935481e-01
-1.070364236831665039e+00 8.287965774536132812e+00 2.551792755126953125e+02 -2.796080093943044687e-01 3.860971883925917638e-03 9.601064805419584625e-01
-1.052207946777343750e+00 7.207362651824951172e+00 2.552075347900390625e+02 -2.600886475877378090e-01 5.126604666610123755e-03 9.655711332266379010e-01
-1.030914187431335449e+00 5.908623218536376953e+00 2.552212219238281250e+02 -2.557496415141821133e-01 7.845233617672453183e-03 9.667112149834878876e-01
-1.010784626007080078e+00 4.604536056518554688e+00 2.551867828369140625e+02 -2.587816119398005377e-01 6.526440618525851736e-03 9.659138071767539024e-01
-9.927380681037902832e-01 3.523799657821655273e+00 2.552107543945312500e+02 -2.500247438644599973e-01 2.595188013464244485e-03 9.682359694076057011e-01
-9.717612266540527344e-01 2.223771572113037109e+00 2.552114562988281250e+02 -2.581476700653428935e-01 -8.939462488115177199e-03 9.660641109420524675e-01
-9.518800973892211914e-01 9.182285070419311523e-01 2.551665496826171875e+02 -2.749648266428817434e-01 -7.425759673819627357e-03 9.614256092920121510e-01
-9.352824687957763672e-01 -1.697439998388290128e-01 2.551302947998046875e+02 -2.755331931027390491e-01 -6.359911941063944862e-03 9.612705191665406046e-01
-9.124379158020019531e-01 -1.459933400154113770e+00 2.552089385986328125e+02 -2.598955445133793729e-01 4.628847706219502318e-03 9.656256415977190199e-01
-8.955648541450500488e-01 -2.546431303024291992e+00 2.551841735839843750e+02 -2.510015426015181905e-01 1.444267360136206567e-02 9.678789360198426506e-01
-8.744757771492004395e-01 -3.845669507980346680e+00 2.551896667480468750e+02 -2.369652962462171497e-01 5.880627385068004642e-03 9.715003173424598959e-01
-8.519101738929748535e-01 -5.136398792266845703e+00 2.552572479248046875e+02 -2.219392899026544630e-01 8.167336932975131913e-03 9.750262797509248180e-01
-8.355466127395629883e-01 -6.225830554962158203e+00 2.552110595703125000e+02 -2.206692953828614800e-01 9.573419907600477091e-03 9.753017029137722727e-01
-8.146216273307800293e-01 -7.525758743286132812e+00 2.552098236083984375e+02 -2.054828948131126598e-01 -7.272953081261347881e-03 9.786336822798921142e-01
-7.927193045616149902e-01 -8.819694519042968750e+00 2.552499084472656250e+02 -1.963139847102918223e-01 -1.183341925587603344e-02 9.804696780604089668e-01
-7.780820727348327637e-01 -9.920141220092773438e+00 2.551304779052734375e+02 -2.098072924707774511e-01 -1.578404978239721784e-02 9.776153455212066579e-01
-7.561391592025756836e-01 -1.121374416351318359e+01 2.551723175048828125e+02 -2.383596509193124102e-01 -1.272349140960274683e-01 9.628062907192703745e-01
-2.394623994827270508e+00 1.547340297698974609e+01 2.508450317382812500e+02 -3.864497930296620365e-01 7.675533458682981536e-01 5.113887158646656106e-01
-2.350589036941528320e+00 1.469801139831542969e+01 2.519535369873046875e+02 -5.525585672828282613e-01 7.118524233038048266e-01 4.335264203700262553e-01
-2.338423967361450195e+00 1.450877761840820312e+01 2.522739410400390625e+02 -6.055414196568387197e-01 6.768283957910088411e-01 4.185963589556766506e-01
-2.314590454101562500e+00 1.412961006164550781e+01 2.528968811035156250e+02 -6.851717224916582527e-01 5.786884401348035833e-01 4.423340366195683271e-01
-2.279782056808471680e+00 1.310052680969238281e+01 2.535369567871093750e+02 -7.928854024935344524e-01 3.190910808718001035e-01 5.191470125318379258e-01
-2.259387969970703125e+00 1.202289676666259766e+01 2.536425933837890625e+02 -8.326038280357490606e-01 9.053396134380696514e-02 5.464196806334991052e-01
-2.232642173767089844e+00 1.050845146179199219e+01 2.537237243652343750e+02 -8.303570799421797766e-01 -7.114319121571497252e-04 5.572312030517768688e-01
-2.216762065887451172e+00 9.645622253417968750e+00 2.537925109863281250e+02 -8.191308200563148789e-01 1.985685754355768443e-03 5.736033095144711380e-01
-2.191727161407470703e+00 8.125538825988769531e+00 2.538102722167968750e+02 -8.105399048072351453e-01 5.913324765548282937e-03 5.856535625310370641e-01
-2.169532060623168945e+00 7.057330608367919922e+00 2.539845886230468750e+02 -7.659332252976159827e-01 4.664685119420204640e-03 6.429032081876151494e-01
-2.146885871887207031e+00 5.760127544403076172e+00 2.540448150634765625e+02 -7.694017621496175297e-01 4.030297324412619991e-04 6.387650318920863324e-01
-2.128607749938964844e+00 4.676928043365478516e+00 2.540729217529296875e+02 -7.665743163412506167e-01 2.060016971110886601e-03 6.421522980228465682e-01
-2.110259771347045898e+00 3.594210863113403320e+00 2.541036987304687500e+02 -7.569835000625568799e-01 5.594768638997526730e-03 6.534100391001940178e-01
-2.101922512054443359e+00 3.165565490722656250e+00 2.541536254882812500e+02 -7.482952445241982664e-01 4.220168056357891280e-03 6.633524080035034798e-01
-2.085680484771728516e+00 2.306674957275390625e+00 2.542373962402343750e+02 -7.140991873056332651e-01 -2.474898332984479081e-03 7.000401599677517073e-01
-2.060026407241821289e+00 7.917356491088867188e-01 2.542798309326171875e+02 -6.954454336235647016e-01 -3.653987733347174253e-03 7.185696189136974166e-01
-2.040882349014282227e+00 -2.862653732299805243e-01 2.543412933349609375e+02 -6.769398804198417663e-01 4.198783149567190433e-03 7.360263368366877224e-01
-2.018127679824829102e+00 -1.580446124076843262e+00 2.544070739746093750e+02 -6.639087147887156037e-01 6.410764951770477754e-03 7.477861462479289401e-01
-1.998552918434143066e+00 -2.655554056167602539e+00 2.544853210449218750e+02 -6.286131992416220671e-01 9.939331023778412433e-03 7.776545862000767695e-01
-1.972217679023742676e+00 -4.165374279022216797e+00 2.545546417236328125e+02 -6.072328267568891658e-01 3.947252012159258028e-03 7.945141366334462774e-01
-1.956507325172424316e+00 -5.024463176727294922e+00 2.546195526123046875e+02 -5.889458764500368204e-01 5.522913751537015734e-03 8.081536067086448893e-01
-1.931449532508850098e+00 -6.540031909942626953e+00 2.546406860351562500e+02 -6.031732941013232541e-01 7.719474268338608319e-04 7.976097926806871019e-01
-1.912318348884582520e+00 -7.615791320800781250e+00 2.547029876708984375e+02 -5.857404171540228077e-01 -8.253406363260887973e-03 8.104566891547223539e-01
-1.889915227890014648e+00 -8.909276008605957031e+00 2.547567901611328125e+02 -5.670836392628231248e-01 -1.180843096793682094e-02 8.235755624340171943e-01
-1.872459053993225098e+00 -9.993695259094238281e+00 2.547552642822265625e+02 -5.594132455031295414e-01 -1.980425781268248253e-02 8.286522866245794594e-01
-1.847432255744934082e+00 -1.150844573974609375e+01 2.547757568359375000e+02 -5.521615167223784537e-01 -1.617289701950390401e-01 8.179006049945768408e-01
-1.832537174224853516e+00 -1.237044334411621094e+01 2.548103942871093750e+02 -5.369144742046210173e-01 -3.416114767122927498e-01 7.713782770910924125e-01
-1.855299592018127441e+00 -1.345543003082275391e+01 2.533942108154296875e+02 -5.329861332754322056e-01 -6.773072239704195363e-01 5.071298710326449521e-01
-1.892009377479553223e+00 -1.415132427215576172e+01 2.517083740234375000e+02 -3.702380220048626103e-01 -7.760072801951748422e-01 5.106236462856124092e-01
-1.913269996643066406e+00 -1.475799465179443359e+01 2.506164550781250000e+02 -2.216085128757724898e-01 -7.845218505162169231e-01 5.791503544707530260e-01
-1.917631506919860840e+00 -1.502440643310546875e+01 2.503119049072265625e+02 -1.831283580717904813e-01 -7.917376045770992965e-01 5.827654502185650731e-01
-2.522976160049438477e+00 1.323956108093261719e+01 2.527379150390625000e+02 -8.522287222313467137e-01 3.261141096811325246e-01 4.090914231205639018e-01
-2.499553918838500977e+00 1.193997192382812500e+01 2.528224792480468750e+02 -9.135120573101320751e-01 6.512587041509197705e-02 4.015648666799508937e-01
-2.342821836471557617e+00 3.293407440185546875e+00 2.534161987304687500e+02 -8.676558854981141211e-01 3.518981612726499765e-03 4.971527744354775624e-01
-2.322520017623901367e+00 2.217611789703369141e+00 2.535177612304687500e+02 -8.594392757357647294e-01 4.606166126331712532e-03 5.112170914165534708e-01
-2.296254873275756836e+00 7.026810050010681152e-01 2.535804595947265625e+02 -8.449825073742713855e-01 -4.825797597620276776e-03 5.347721700958607549e-01
-2.280026197433471680e+00 -1.571329385042191107e-01 2.536617584228515625e+02 -8.338239787653094481e-01 1.039744690701012225e-03 5.520294298014981615e-01
-2.252549886703491211e+00 -1.665319681167602539e+00 2.537700653076171875e+02 -8.207671896302447534e-01 9.402803514749620908e-03 5.711854407392864541e-01
-2.232714653015136719e+00 -2.741047620773315430e+00 2.538555603027343750e+02 -8.053173235967684418e-01 4.265992713890489826e-03 5.928286511472794507e-01
-2.209838151931762695e+00 -4.035871982574462891e+00 2.539239196777343750e+02 -7.938904485955837753e-01 6.974445807880819657e-03 6.080208160370625947e-01
-2.189865589141845703e+00 -5.109924793243408203e+00 2.540150909423828125e+02 -7.649785312365390277e-01 8.557832202250923934e-03 6.439989210046749291e-01
-2.163005352020263672e+00 -6.618456363677978516e+00 2.541019134521484375e+02 -7.616820220676482345e-01 2.843390624348857663e-03 6.479447602911038162e-01
-2.133211374282836914e+00 -1.476663303375244141e+01 2.505852813720703125e+02 -2.523689831199776856e-01 -7.691255838307146098e-01 5.871590352332584084e-01
-2.795786380767822266e+00 1.443476867675781250e+01 2.515383758544921875e+02 -6.920854898594201998e-01 5.714328956935519344e-01 4.410012703443479398e-01
-2.718781471252441406e+00 1.078016090393066406e+01 2.521505737304687500e+02 -9.405847191251561767e-01 3.147098739446712711e-03 3.395445212601365115e-01
-2.695205688476562500e+00 9.479714393615722656e+00 2.522383575439453125e+02 -9.408145392451542355e-01 6.207152157360116109e-04 3.389212555410903160e-01
-2.677783250808715820e+00 8.388074874877929688e+00 2.522315063476562500e+02 -9.404571081258034093e-01 2.473709905977439488e-03 3.399033811761100754e-01
-2.652927398681640625e+00 7.093447685241699219e+00 2.523660278320312500e+02 -9.401487115019967478e-01 3.430251518439122408e-03 3.407471696663900151e-01
-2.627965450286865234e+00 5.800131797790527344e+00 2.525048370361328125e+02 -9.369502299019288882e-01 5.369389158142455314e-03 3.494215739572918422e-01
-2.610640048980712891e+00 4.708853244781494141e+00 2.524949340820312500e+02 -9.354114591441685667e-01 2.952483381121940751e-04 3.535609069597432375e-01
-2.585926294326782227e+00 3.415786504745483398e+00 2.526254577636718750e+02 -9.289336869150763842e-01 -5.853858619798798417e-04 3.702456787563569995e-01
-2.562705755233764648e+00 2.117142677307128906e+00 2.527021484375000000e+02 -9.236787050365476981e-01 -6.703634572481631526e-04 3.831673269928447811e-01
-2.543735742568969727e+00 1.033668518066406250e+00 2.527524414062500000e+02 -9.193367683611333163e-01 9.341117636053859015e-04 3.934704992429815529e-01
-2.519354581832885742e+00 -2.587906420230864923e-01 2.528719482421875000e+02 -9.085037036896743690e-01 4.663789832274047205e-03 4.178507741365865003e-01
-2.384523868560791016e+00 -7.584650039672851562e+00 2.534351654052734375e+02 -8.678054904542331638e-01 7.320436437544528864e-03 4.968501202051294752e-01
-2.361061573028564453e+00 -8.876925468444824219e+00 2.535235748291015625e+02 -8.543819186859246129e-01 -1.002769042566199059e-02 5.195488258549768590e-01
-2.342928886413574219e+00 -9.961014747619628906e+00 2.535450439453125000e+02 -8.482390385426149537e-01 -8.748995301456792550e-03 5.295413001584626800e-01
-2.318086147308349609e+00 -1.124471282958984375e+01 2.536851043701171875e+02 -8.216493540064854217e-01 -1.227803358278258955e-01 5.566123679857744033e-01
-2.992330551147460938e+00 1.289304447174072266e+01 2.514509735107421875e+02 -9.115059221550323443e-01 1.934437273952364922e-01 3.629552013785471432e-01
-2.978652954101562500e+00 1.201717758178710938e+01 2.514354400634765625e+02 -9.344670795087277604e-01 3.839442603740229887e-02 3.539733681559781853e-01
-2.946645021438598633e+00 1.028179931640625000e+01 2.515687713623046875e+02 -9.391667207376166449e-01 1.977517619612064598e-03 3.434559070434159422e-01
-2.934990406036376953e+00 9.630088806152343750e+00 2.516066436767578125e+02 -9.399870431831233164e-01 7.821289292039052161e-04 3.412092421406356380e-01
-2.910493373870849609e+00 8.099886894226074219e+00 2.515996093750000000e+02 -9.385667427228873150e-01 3.446294765348320230e-03 3.450805594450950253e-01
-2.738661766052246094e+00 -1.437028050422668457e+00 2.521963195800781250e+02 -9.423646871101305500e-01 6.362833594521123334e-03 3.345269956766929176e-01
-2.715883493423461914e+00 -2.738211393356323242e+00 2.522554473876953125e+02 -9.417132180126865926e-01 4.527830957607597434e-03 3.363862568045987711e-01
-2.695654869079589844e+00 -3.816281318664550781e+00 2.523498229980468750e+02 -9.399523557294241494e-01 3.675757870816861311e-03 3.412858886077494436e-01
-2.672828435897827148e+00 -5.116308212280273438e+00 2.524111785888671875e+02 -9.393473843801248835e-01 3.776136253201831713e-03 3.429463985132593096e-01
-2.648399353027343750e+00 -6.407913208007812500e+00 2.525307312011718750e+02 -9.346556366919870351e-01 4.263688963979304219e-03 3.555287073589344926e-01
-2.628427982330322266e+00 -7.485594272613525391e+00 2.526166992187500000e+02 -9.310900138847089114e-01 2.621727340912733718e-03 3.647800879844217969e-01
-2.604337692260742188e+00 -8.777517318725585938e+00 2.527247161865234375e+02 -9.259646308626102718e-01 -1.024517743196111602e-03 3.776088621243730570e-01
-2.582736730575561523e+00 -1.008190059661865234e+01 2.527427520751953125e+02 -9.176423400119343432e-01 -1.040737829567549332e-03 3.974059041863764463e-01
-2.561068058013916016e+00 -1.114895725250244141e+01 2.528912506103515625e+02 -9.044903742925980428e-01 -7.324306990473279655e-02 4.201578459614508376e-01
-2.536432743072509766e+00 -1.267300319671630859e+01 2.528921203613281250e+02 -8.245310811685940822e-01 -3.714717207786484843e-01 4.267988482279434503e-01
-3.094739198684692383e+00 5.443905830383300781e+00 2.513244781494140625e+02 -9.388178051512074962e-01 5.840149613993147332e-03 3.443646633781622945e-01
-3.082589387893676758e+00 4.561672687530517578e+00 2.512554473876953125e+02 -9.369025590588794250e-01 2.941597505015899547e-03 3.495782342095126172e-01
-3.058280229568481445e+00 3.262533903121948242e+00 2.513649902343750000e+02 -9.380007581099483183e-01 -3.415420734301290520e-03 3.466163768294421854e-01
-3.041145801544189453e+00 2.167510032653808594e+00 2.513468933105468750e+02 -9.375997852669838428e-01 -5.917730395000094651e-04 3.477158214289021720e-01
-3.014909982681274414e+00 6.440066695213317871e-01 2.514006195068359375e+02 -9.400639931909363645e-01 2.134197270832853544e-03 3.409913985834843730e-01
-2.998824119567871094e+00 -2.216042429208754938e-01 2.514699096679687500e+02 -9.414653080573499588e-01 3.855680788912263859e-03 3.370878334353427097e-01
-2.970829486846923828e+00 -1.736362457275390625e+00 2.515861206054687500e+02 -9.416724520667588694e-01 8.093672918926009610e-03 3.364334785321740351e-01
-2.956404924392700195e+00 -2.608684539794921875e+00 2.515972137451171875e+02 -9.417224333998540642e-01 4.923739088574371689e-03 3.363548947538085865e-01
-3.158185005187988281e+00 -4.412117481231689453e+00 2.512034301757812500e+02 -9.375134080004777770e-01 5.782868324660277864e-03 3.479010897557942017e-01
-3.149056196212768555e+00 -5.074806690216064453e+00 2.511524047851562500e+02 -9.336687820284351735e-01 5.397240707722463296e-03 3.580970193373316790e-01
-3.119953393936157227e+00 -6.584144592285156250e+00 2.513053436279296875e+02 -9.384409533905250234e-01 3.089699041826099446e-03 3.454258686886572116e-01
-3.105893611907958984e+00 -7.458631515502929688e+00 2.513032073974609375e+02 -9.379412285461359300e-01 3.462342409034841785e-03 3.467769657552358664e-01
-3.075636863708496094e+00 -9.196815490722656250e+00 2.513738250732421875e+02 -9.387236233804276964e-01 6.729047557612072988e-04 3.446701410141447819e-01
-3.061466693878173828e+00 -1.007053661346435547e+01 2.513756866455078125e+02 -9.401283245267023636e-01 1.837121838538124940e-03 3.408157249980781067e-01
-3.036375045776367188e+00 -1.136106300354003906e+01 2.515131835937500000e+02 -9.426095501087119466e-01 -5.827357792633348216e-02 3.287726055490564625e-01
-3.018104791641235352e+00 -1.244979953765869141e+01 2.515353546142578125e+02 -8.932738705394949186e-01 -2.639102802207147214e-01 3.638861857850799186e-01
-3.008313655853271484e+00 -1.358416080474853516e+01 2.512590789794921875e+02 -6.883230743423492948e-01 -5.363902771688118243e-01 4.883613578966521929e-01
-3.015935420989990234e+00 -1.481560516357421875e+01 2.503681030273437500e+02 -3.298285560706844532e-01 -6.884308719165432855e-01 6.459690845485992483e-01
4.233895778656005859e+00 1.282194423675537109e+01 2.517582092285156250e+02 8.991338767411329869e-01 1.922723912174816863e-01 3.931788387896437698e-01
4.237439155578613281e+00 1.260385322570800781e+01 2.517613983154296875e+02 9.110507057157508637e-01 1.514204853880780077e-01 3.834820050793402157e-01
4.247556209564208984e+00 1.194556903839111328e+01 2.517291259765625000e+02 9.258980285530084009e-01 4.843124183678394062e-02 3.746561831009849741e-01
4.254514694213867188e+00 1.150835609436035156e+01 2.517249298095703125e+02 9.283520334462964652e-01 1.676350746007711570e-02 3.713239647716834457e-01
4.275534152984619141e+00 1.019791698455810547e+01 2.517244873046875000e+02 9.267352774758581546e-01 -1.171571608583235266e-02 3.755322455906288104e-01
4.285439014434814453e+00 9.537633895874023438e+00 2.516743927001953125e+02 9.256564156241177121e-01 -1.506574814886893314e-02 3.780651047724792879e-01
4.291689395904541016e+00 9.094367980957031250e+00 2.516118011474609375e+02 9.254326063445750261e-01 -1.448058691715280698e-02 3.786354496304087380e-01
3.963572263717651367e+00 1.537216091156005859e+01 2.510023498535156250e+02 4.827135994047826451e-01 7.147697798582096640e-01 5.060550787721880273e-01
3.991701841354370117e+00 1.435355949401855469e+01 2.518283691406250000e+02 7.031420704009375688e-01 5.493651922492159834e-01 4.514300769524167700e-01
4.002121925354003906e+00 1.394139766693115234e+01 2.520951843261718750e+02 7.878465586979298552e-01 4.548569557069672142e-01 4.152143419883513875e-01
4.011223793029785156e+00 1.352021312713623047e+01 2.522594146728515625e+02 8.396721462449768802e-01 3.630143727271173404e-01 4.039446150326699847e-01
4.015213966369628906e+00 1.330564117431640625e+01 2.522976989746093750e+02 8.607465306705638364e-01 3.225406968267983121e-01 3.938056739422013952e-01
4.025909900665283203e+00 1.265268421173095703e+01 2.523128967285156250e+02 9.063552674189107039e-01 1.874910378069759576e-01 3.786386667577127940e-01
4.035857200622558594e+00 1.199411392211914062e+01 2.522693481445312500e+02 9.291354098598489930e-01 6.758296678719770412e-02 3.635105675834075512e-01
4.042832851409912109e+00 1.155763244628906250e+01 2.522672882080078125e+02 9.327783817624799578e-01 2.063121842451390645e-02 3.598594772169953493e-01
4.053234100341796875e+00 1.090243244171142578e+01 2.522593383789062500e+02 9.324722428627068016e-01 -1.279043358647851325e-03 3.612393670942856683e-01
4.063394546508789062e+00 1.024530601501464844e+01 2.522323150634765625e+02 9.315539233875055336e-01 -1.136433933590029303e-02 3.634255626848555409e-01
4.095244884490966797e+00 8.037436485290527344e+00 2.519811401367187500e+02 9.323131965282193123e-01 -9.980797664017382331e-03 3.615141591380947594e-01
4.098561763763427734e+00 7.817617893218994141e+00 2.519663696289062500e+02 9.324162030713469829e-01 -9.070199337975259901e-03 3.612724120853706977e-01
4.112406730651855469e+00 6.943147659301757812e+00 2.519531555175781250e+02 9.343547296672604086e-01 -4.494626624109605839e-03 3.563159236968375110e-01
4.119657516479492188e+00 6.508748531341552734e+00 2.519727325439453125e+02 9.345838811488555997e-01 -3.575181161365344022e-03 3.557248756783885635e-01
4.139588832855224609e+00 5.189548969268798828e+00 2.518857879638671875e+02 9.338946017891709417e-01 -7.503375650172441555e-03 3.574696799770554212e-01
4.148898124694824219e+00 4.523793697357177734e+00 2.517893981933593750e+02 9.330425749995390206e-01 -1.222059305634516820e-02 3.595583545734697406e-01
4.155844211578369141e+00 4.086578845977783203e+00 2.517845153808593750e+02 9.334625491820521814e-01 -1.394633644001366281e-02 3.584036397338160040e-01
4.169452667236328125e+00 3.209461212158203125e+00 2.517516937255859375e+02 9.342164803477155388e-01 -1.160093629331301890e-02 3.565178622787989471e-01
4.172691822052001953e+00 2.988630294799804688e+00 2.517303161621093750e+02 9.344549159223826118e-01 -1.034118446650168083e-02 3.559312714729103155e-01
4.186126232147216797e+00 2.109664201736450195e+00 2.516832275390625000e+02 9.346434264951100079e-01 -7.507826408180033606e-03 3.555070995804501255e-01
4.193146705627441406e+00 1.673051357269287109e+00 2.516842193603515625e+02 9.351567652943810760e-01 -7.808409936396736722e-03 3.541480665744410894e-01
4.214059352874755859e+00 3.617530167102814276e-01 2.516749267578125000e+02 9.365166379476339564e-01 -5.963800521854349668e-03 3.505724175268155052e-01
3.739014148712158203e+00 1.557342529296875000e+01 2.508442840576171875e+02 3.759870173597338883e-01 7.563110736677763901e-01 5.353758704166879934e-01
3.745327234268188477e+00 1.537320232391357422e+01 2.510543823242187500e+02 4.348615925419704875e-01 7.425625248564018399e-01 5.094077855812046973e-01
3.751693964004516602e+00 1.517356109619140625e+01 2.512686614990234375e+02 4.787293593266142011e-01 7.177112227693426272e-01 5.056765776953334735e-01
3.778425931930541992e+00 1.438602828979492188e+01 2.522237854003906250e+02 6.681136248258099375e-01 6.103810487631948778e-01 4.255104694750283523e-01
3.791177272796630859e+00 1.398955631256103516e+01 2.526567230224609375e+02 7.460023489868287117e-01 5.206292112831693020e-01 4.152417605019982361e-01
3.810040950775146484e+00 1.315229034423828125e+01 2.530243682861328125e+02 8.399630310578072301e-01 3.229643446386362693e-01 4.360689607714783311e-01
3.816827535629272461e+00 1.271525669097900391e+01 2.530088653564453125e+02 8.731256784041383501e-01 2.299340460831005850e-01 4.298626340625195663e-01
3.829999208450317383e+00 1.183816146850585938e+01 2.529474334716796875e+02 9.079984104379810184e-01 5.488718730848188287e-02 4.153628333294439035e-01
3.837173223495483398e+00 1.140389537811279297e+01 2.529612274169921875e+02 9.066424526224065028e-01 8.309589221734921261e-03 4.218179866124650013e-01
3.847185850143432617e+00 1.074689960479736328e+01 2.529250640869140625e+02 9.090368519798172064e-01 -6.712025313050123954e-03 4.166616738540045439e-01
3.853696584701538086e+00 1.030759143829345703e+01 2.528884124755859375e+02 9.103298305764724319e-01 -1.049601290202796001e-02 4.137504480671549967e-01
3.866473197937011719e+00 9.426833152770996094e+00 2.527961425781250000e+02 9.139549014073378164e-01 -1.038979756930132232e-02 4.056827458741282255e-01
3.872667551040649414e+00 8.984789848327636719e+00 2.527351074218750000e+02 9.179116526386443820e-01 -1.042763302531805186e-02 3.966477813119367868e-01
3.885606050491333008e+00 8.104732513427734375e+00 2.526545867919921875e+02 9.230026708918471767e-01 -7.212325671016057288e-03 3.847259438677505528e-01
3.888848066329956055e+00 7.884730339050292969e+00 2.526350097656250000e+02 9.247291737962013425e-01 -6.638467859963585911e-03 3.805678466117005110e-01
3.901999711990356445e+00 7.006018638610839844e+00 2.525703582763671875e+02 9.316009475020186059e-01 -2.926859219128055949e-03 3.634709178303716648e-01
3.909236192703247070e+00 6.572093486785888672e+00 2.525887756347656250e+02 9.313289423398682931e-01 -1.560758653785403833e-03 3.641757339424567252e-01
3.922857046127319336e+00 5.697113513946533203e+00 2.525600891113281250e+02 9.326034323554687200e-01 -3.625930937040528369e-03 3.608845945501673036e-01
3.925990343093872070e+00 5.476017475128173828e+00 2.525319061279296875e+02 9.334831685371677290e-01 -4.536012408183387121e-03 3.585925245306185172e-01
3.938440084457397461e+00 4.590620040893554688e+00 2.524124603271484375e+02 9.348289378400845839e-01 -1.093810194848332182e-02 3.549298732179976268e-01
3.945176839828491211e+00 4.152248382568359375e+00 2.523921356201171875e+02 9.354142126004069135e-01 -1.245214478418386894e-02 3.533343953755912481e-01
3.958650112152099609e+00 3.275391340255737305e+00 2.523513946533203125e+02 9.367551977633251648e-01 -9.322082695681407211e-03 3.498611127827848111e-01
3.965014457702636719e+00 2.833516120910644531e+00 2.523020019531250000e+02 9.385306974791441936e-01 -8.051856348878486461e-03 3.451018653943325742e-01
3.974867105484008789e+00 2.173333883285522461e+00 2.522515716552734375e+02 9.395659625040488905e-01 -6.447173643551297809e-03 3.423072246620716408e-01
3.981667757034301758e+00 1.735280871391296387e+00 2.522358856201171875e+02 9.400139791751425111e-01 -6.734411781186951974e-03 3.410694454994114833e-01
3.985105514526367188e+00 1.516594767570495605e+00 2.522309722900390625e+02 9.400894510918408331e-01 -6.896970694220775147e-03 3.408581167305309578e-01
3.995638370513916016e+00 8.626047968864440918e-01 2.522334136962890625e+02 9.403872157487540573e-01 -5.802386576582178358e-03 3.400561964827610861e-01
4.002419948577880859e+00 4.243168532848358154e-01 2.522162170410156250e+02 9.407796229146492273e-01 -4.585122799222300823e-03 3.389877250837948774e-01
4.011813640594482422e+00 -2.407214492559432983e-01 2.521293945312500000e+02 9.398274933799193320e-01 -6.408162537502586943e-03 3.415892535489229442e-01
4.018330574035644531e+00 -6.817505955696105957e-01 2.520912628173828125e+02 9.391029092739996420e-01 -7.646409468156571514e-03 3.435509543217064587e-01
4.034581661224365234e+00 -1.785076141357421875e+00 2.519924011230468750e+02 9.373239056419127024e-01 -5.277613534487446065e-03 3.484193489282296774e-01
4.037747383117675781e+00 -2.006658792495727539e+00 2.519658660888671875e+02 9.369740529510944826e-01 -3.874132150965309881e-03 3.493774680721075110e-01
4.051021099090576172e+00 -2.887004852294921875e+00 2.519077606201171875e+02 9.366074559778940767e-01 2.070245076368737794e-03 3.503743533592907911e-01
4.054676532745361328e+00 -3.103669166564941406e+00 2.519197845458984375e+02 9.365145682412946426e-01 3.039322584353684048e-03 3.506154959354333411e-01
4.079324722290039062e+00 -4.629811763763427734e+00 2.519300537109375000e+02 9.373540548778914738e-01 1.978163284751633202e-04 3.483781518302708768e-01
4.089315414428710938e+00 -5.289971351623535156e+00 2.518890075683593750e+02 9.369303164334848999e-01 -4.815256448175929058e-03 3.494830402940725111e-01
4.092713356018066406e+00 -5.509326934814453125e+00 2.518806457519531250e+02 9.368150469292453320e-01 -6.665393580137125330e-03 3.497615478799485644e-01
4.109177589416503906e+00 -6.611980438232421875e+00 2.517969970703125000e+02 9.361620704045194863e-01 -1.121351811703764564e-02 3.513898617595028750e-01
4.112658023834228516e+00 -6.830492019653320312e+00 2.517951660156250000e+02 9.360556539227975481e-01 -1.107717212650876672e-02 3.516775639941274734e-01
4.125881671905517578e+00 -7.712393760681152344e+00 2.517319641113281250e+02 9.365339802832102212e-01 -9.253896228024298398e-03 3.504546606616733562e-01
4.132309436798095703e+00 -8.155526161193847656e+00 2.516855316162109375e+02 9.368803105577938606e-01 -8.358129676206093456e-03 3.495503187774929854e-01
4.150077342987060547e+00 -9.244171142578125000e+00 2.517054290771484375e+02 9.379102568361815662e-01 -2.704265581974051383e-03 3.468674632610415087e-01
4.163402080535888672e+00 -1.012541770935058594e+01 2.516498413085937500e+02 9.373066854338146792e-01 -2.853315004193069868e-03 3.484939540860972351e-01
4.169739723205566406e+00 -1.056998062133789062e+01 2.515957031250000000e+02 9.352350755246183756e-01 -8.755919241929607452e-03 3.539190407235679459e-01
4.180248260498046875e+00 -1.122503280639648438e+01 2.515953063964843750e+02 9.300091187998206221e-01 -5.136096110991748842e-02 3.639300628184578557e-01
4.187196731567382812e+00 -1.166242885589599609e+01 2.515903625488281250e+02 9.173410258064096379e-01 -1.089324163682355850e-01 3.829088286219332615e-01
4.200385570526123047e+00 -1.254588890075683594e+01 2.515231933593750000e+02 8.663151501726511494e-01 -2.869370008895117397e-01 4.088584328369283538e-01
4.206949234008789062e+00 -1.298811054229736328e+01 2.514869537353515625e+02 8.127216545217443855e-01 -3.865182519635666503e-01 4.359898544352462935e-01
4.214951992034912109e+00 -1.367462635040283203e+01 2.512824707031250000e+02 6.972800096825574334e-01 -5.152283670621238265e-01 4.983375541453704538e-01
4.218686580657958984e+00 -1.415285205841064453e+01 2.510152740478515625e+02 5.906019166827839451e-01 -5.884982995616678814e-01 5.521404960910292203e-01
3.541266441345214844e+00 1.498299884796142578e+01 2.516216735839843750e+02 4.767967521788658014e-01 7.500857224687971225e-01 4.582971373030252371e-01
3.573541879653930664e+00 1.423052120208740234e+01 2.529466247558593750e+02 6.456188718224412648e-01 6.204183978845236869e-01 4.452609166692254039e-01
3.587740659713745117e+00 1.384337902069091797e+01 2.534703521728515625e+02 6.942955513197333062e-01 5.221101605352989061e-01 4.953328857278028186e-01
3.602368116378784180e+00 1.321910381317138672e+01 2.537724914550781250e+02 7.655261383805165298e-01 3.594638554658091678e-01 5.336248383179609256e-01
3.609048843383789062e+00 1.278219127655029297e+01 2.537506103515625000e+02 8.060291204503199358e-01 2.519777054595005450e-01 5.355597939889145120e-01
3.618519306182861328e+00 1.212285900115966797e+01 2.536774749755859375e+02 8.390936291869525165e-01 1.190000726748228765e-01 5.308115147218039898e-01
3.629314899444580078e+00 1.147279834747314453e+01 2.537010040283203125e+02 8.478034274913550661e-01 1.733272195145867806e-02 5.300272871123372642e-01
3.639378786087036133e+00 1.081749916076660156e+01 2.536710662841796875e+02 8.501923769106551898e-01 -1.320875014803961182e-02 5.263064232579125479e-01
3.648763656616210938e+00 1.015708351135253906e+01 2.535911560058593750e+02 8.522154539596791256e-01 -1.009464462065535681e-02 5.230936036526165900e-01
3.658310890197753906e+00 9.497649192810058594e+00 2.535230102539062500e+02 8.586645102421853748e-01 -1.051914986312692778e-02 5.124300989761483294e-01
3.664645433425903320e+00 9.057672500610351562e+00 2.534751739501953125e+02 8.633487725785198297e-01 -1.276529202558934067e-02 5.044461757280599423e-01
3.678042411804199219e+00 8.183078765869140625e+00 2.534328765869140625e+02 8.653705020253523728e-01 -4.802212816965128507e-03 5.011096017603837716e-01
3.684422016143798828e+00 7.743221759796142578e+00 2.533881530761718750e+02 8.699610924537373169e-01 1.618570759728970058e-04 4.931203417209502060e-01
3.693802595138549805e+00 7.081752777099609375e+00 2.533068542480468750e+02 8.794833343795095404e-01 6.391678336856322813e-03 4.758867627878907713e-01
3.700963735580444336e+00 6.647938251495361328e+00 2.533197174072265625e+02 8.808129842806685650e-01 3.129635935953073260e-03 4.734540020968152629e-01
3.714590549468994141e+00 5.774704933166503906e+00 2.532939758300781250e+02 8.821596002177803930e-01 -1.531518978147722700e-03 4.709480801460236288e-01
