2.3456583025 -2.9995658490 -0.7038922617
1.9056398065 -3.0098156053 -0.7659071160
0.8094234300 -3.0344154984 -0.8763344356
0.5911682647 -3.0390862727 -0.8875971078
-0.0623189462 -3.0527844475 -0.9079549421
-0.5008510570 -3.0625993023 -0.9508571578
-1.1624430216 -3.0781839628 -1.0522496825
-1.8238338365 -3.0936717406 -1.1492878408
-2.2647087701 -3.1039593974 -1.2122541241
-2.4846177736 -3.1089748159 -1.2382075539
-2.9249823875 -3.1191195225 -1.2948890673
-3.1449863194 -3.1241442444 -1.3211957894
-3.5820253324 -3.1335202956 -1.3449242481
-4.2345552450 -3.1469111559 -1.3516762907
-4.6705648466 -3.1560580360 -1.3655974203
-4.8887540033 -3.1606715867 -1.3742640618
-5.3251365015 -3.1698993489 -1.3915821510
-5.5438914112 -3.1746328526 -1.4053749858
-5.9830906241 -3.1844572152 -1.4481253048
-6.6428203231 -3.1993688766 -1.5196062620
-7.3052824551 -3.2148216439 -1.6139534522
-7.7421717527 -3.2241183417 -1.6340918474
-7.9610836066 -3.2288621748 -1.6481936471
-8.4032202244 -3.2392271053 -1.7136014471
-8.6247462196 -3.2444959066 -1.7499103910
-9.0638486620 -3.2542197808 -1.7880035814
-9.7182407499 -3.2679370342 -1.8083830448
-9.9370243107 -3.2726395888 -1.8206809159
-10.3749868122 -3.2821195886 -1.8483994682
-10.5942683078 -3.2869172310 -1.8646925302
-11.0346673787 -3.2968662284 -1.9121415861
-11.4752028275 -3.3068289349 -1.9601738977
-12.7943837890 -3.3361909105 -2.0816407328
-13.4566541451 -3.3513449419 -2.1621410553
-13.9127856495 -3.3641641093 -2.3296480773
-14.3877472772 -3.3804261171 -2.6413243079
-14.6306750884 -3.3895301943 -2.8377054518
-15.1263361740 -3.4094480014 -3.3016689072
-15.3778353829 -3.4200255296 -3.5592710890
14.2248585328 -2.5624028307 -1.7718023660
13.6515561128 -2.5488407488 -0.5571263974
13.4618733797 -2.5440997063 -0.1430128351
13.0722705738 -2.5383291762 0.5163864461
11.5733024789 -2.5632822552 0.7814001100
10.9221701937 -2.5768246523 0.7662418503
10.4900358859 -2.5852649851 0.7825556452
10.2726665824 -2.5898827686 0.7728707901
9.1770404908 -2.6155108795 0.6105046951
8.0865998873 -2.6395068270 0.5216876228
7.8697392287 -2.6439533518 0.5197527149
6.7779992204 -2.6682325563 0.4185882325
6.1211686514 -2.6832402028 0.3384000753
5.4721871005 -2.6961277694 0.3527182254
5.0356691952 -2.7057448025 0.3166399121
4.8170383770 -2.7106452279 0.2945016460
4.3794526245 -2.7205216253 0.2469971718
4.1600494524 -2.7256101874 0.2165837700
3.7206670483 -2.7359170380 0.1500504851
3.0640367362 -2.7507222685 0.0794668919
2.4113253071 -2.7645269938 0.0532518011
1.9735223508 -2.7743772836 0.0071614482
1.7541333671 -2.7794165772 -0.0208707409
1.3155094149 -2.7894423553 -0.0745964054
1.0964392308 -2.7943908394 -0.0986071208
0.6591690299 -2.8040710952 -0.1369774344
0.0058527906 -2.8179647677 -0.1669003800
-0.4310415460 -2.8275372245 -0.2004542120
-0.6506180591 -2.8325805660 -0.2285519735
-1.3114383729 -2.8481641391 -0.3325219698
-1.7529182875 -2.8587347380 -0.4097124392
-2.6304636118 -2.8785992547 -0.5078458440
-3.0686912424 -2.8883905339 -0.5506497595
-3.7236168020 -2.9025308974 -0.5908824510
-4.1598910488 -2.9118771704 -0.6141654684
-4.3777920794 -2.9164985497 -0.6235425680
-5.0304521889 -2.9301380691 -0.6418354924
-5.4651420376 -2.9391428777 -0.6502307972
-6.5649082071 -2.9643543407 -0.7884752501
-6.7860087398 -2.9696205999 -0.8257971046
-7.4466518428 -2.9848490861 -0.9128374125
-7.8840004925 -2.9943592216 -0.9429834708
-8.9821838537 -3.0190637475 -1.0583124459
-9.2012555160 -3.0238851017 -1.0761573571
-9.8597202186 -3.0385796481 -1.1396575385
-10.2970351322 -3.0480426084 -1.1675287399
-11.6123323142 -3.0770375365 -1.2770761918
-12.0535762684 -3.0872166859 -1.3355956754
-12.2743482131 -3.0923277317 -1.3657976514
-12.7158654606 -3.1025354352 -1.4254225254
-13.3799614531 -3.1181540395 -1.5279294407
-13.8473825617 -3.1330637955 -1.7887762717
-14.0948560860 -3.1430002752 -2.0252709019
-14.6076529958 -3.1659982797 -2.6314503997
-14.8664032891 -3.1778533827 -2.9493775309
14.8220175844 -2.3484832873 -2.6059695060
13.8478585630 -2.3320575568 -0.8181627982
12.6864846626 -2.3133884071 1.2681671020
12.2571343651 -2.3210740063 1.3196509995
11.6024632116 -2.3359117403 1.2442752536
10.9523047944 -2.3493547305 1.2331543133
10.5208133456 -2.3577468858 1.2519565042
10.3039186126 -2.3622855638 1.2455489935
9.8670108507 -2.3722682695 1.1912989904
9.6476573248 -2.3775100980 1.1526752896
9.2100526759 -2.3876557943 1.0910369586
8.5575975521 -2.4017237623 1.0514276990
7.9083319758 -2.4148987732 1.0526446922
7.2583148482 -2.4282914715 1.0438469690
6.6005492743 -2.4437553031 0.9407116632
5.9487208419 -2.4576048545 0.9111903809
5.5169077320 -2.4661248627 0.9239868308
4.2100279158 -2.4946266102 0.8286195650
3.5511126780 -2.5102054453 0.7209544198
3.1140679034 -2.5200114442 0.6755073763
1.8129677551 -2.5469618800 0.6508964084
1.1566631139 -2.5617938559 0.5774351540
0.7192477279 -2.5716348224 0.5306361781
0.5009340209 -2.5764594484 0.5115882125
-0.5881146318 -2.5999734144 0.4438194654
-1.6868217344 -2.6255907531 0.2820032047
-1.9060656933 -2.6305893911 0.2552866333
-2.9962789191 -2.6542314016 0.1823772162
-3.8693796715 -2.6733152800 0.1165825517
-4.3050598870 -2.6826637951 0.0923673196
-4.7388574110 -2.6916145772 0.0858554201
-4.9549219000 -2.6959179989 0.0902581461
-5.3867037193 -2.7044598698 0.1019564763
-5.6042844991 -2.7090800732 0.0922206729
-6.0441605527 -2.7192799947 0.0302228107
-6.7067385594 -2.7351022376 -0.0858478569
-7.3664856891 -2.7503120627 -0.1745162577
-7.8037610208 -2.7599286719 -0.2103230730
-8.0219840650 -2.7646509387 -0.2244697549
-8.4580113134 -2.7740125197 -0.2489832680
-9.1144394058 -2.7885077661 -0.3057201410
-9.7755808225 -2.8038847338 -0.4012288069
-10.2120459145 -2.8133010574 -0.4280115972
-10.4293039293 -2.8178239376 -0.4332220443
-10.8641484645 -2.8269312200 -0.4463827478
-11.0824730736 -2.8316533034 -0.4603944813
-11.5226855030 -2.8417556151 -0.5172265010
-12.4064691211 -2.8625317180 -0.6558330231
-12.8462023917 -2.8725014670 -0.7066250404
-13.5206280904 -2.8901001950 -0.8984504613
-15.3824994970 -2.9814864888 -3.5400454546
14.8179290795 -2.1295254080 -2.6087143486
14.6159434041 -2.1285561837 -2.3519155055
14.4176528605 -2.1264570729 -2.0417929025
14.2241215553 -2.1229070531 -1.6631960029
14.0354106539 -2.1179158862 -1.2166727860
13.8507558412 -2.1117582012 -0.7153672614
13.6684058624 -2.1050140677 -0.1867936950
13.4857172578 -2.0985318378 0.3289360948
13.2995716672 -2.0932816000 0.7858838285
13.1070492517 -2.0901500156 1.1422980062
12.6986810065 -2.0913610296 1.5011667291
12.4854965621 -2.0947939630 1.5469234497
12.0527690588 -2.1036174432 1.5459317478
11.8354493723 -2.1083172288 1.5318218084
11.6179711260 -2.1130630898 1.5155866271
11.1843667628 -2.1221491412 1.5022266447
10.9685448441 -2.1264061679 1.5089857725
10.5366728292 -2.1349962260 1.5189424557
10.3197750550 -2.1395718482 1.5107186761
10.1019886224 -2.1443992401 1.4906452285
9.6646525548 -2.1545424037 1.4276999254
9.4460144364 -2.1595951691 1.3971055495
9.0104567678 -2.1692090126 1.3590958189
8.7935298022 -2.1737768172 1.3512834173
8.5770042355 -2.1782340445 1.3486393131
8.1450547706 -2.1868542171 1.3571289326
7.9296147121 -2.1910248996 1.3679112501
7.4979295513 -2.1995919184 1.3788033839
7.2806751134 -2.2042529922 1.3666180972
7.0624455422 -2.2091692545 1.3425505863
6.6252348838 -2.2191837796 1.2859116222
6.1907982330 -2.2284657686 1.2635116412
5.9749575979 -2.2327520798 1.2688203972
5.5436856841 -2.2412301644 1.2837974948
4.8944882275 -2.2545408878 1.2786368098
4.2406076016 -2.2690102522 1.2196402873
3.8019366054 -2.2793120010 1.1500391546
3.5823865824 -2.2845051649 1.1133332929
3.1456996238 -2.2942941736 1.0675584494
2.9296869823 -2.2986288847 1.0706195291
2.5004939573 -2.3066341111 1.1073495206
2.2855516667 -2.3107262666 1.1215625086
1.8527927974 -2.3195908701 1.1185096167
1.1986210847 -2.3340517373 1.0603150950
0.5429225170 -2.3488341574 0.9874015693
0.1077493200 -2.3582319086 0.9598710321
-0.1095187965 -2.3628580980 0.9494864028
-0.5445918624 -2.3722263995 0.9233624194
-0.7624734143 -2.3769852239 0.9069039322
-1.1995930799 -2.3867917988 0.8607219436
-1.8556284690 -2.4015546051 0.7891281832
-2.0731751788 -2.4062261176 0.7766916913
-2.5075812309 -2.4154206291 0.7586880291
-2.7246251756 -2.4199835647 0.7512544001
-3.1588379363 -2.4291340058 0.7352241753
-3.5951588978 -2.4387238344 0.6992108329
-4.2482246146 -2.4528018918 0.6592355920
-6.2005463454 -2.4936048712 0.6044463899
-6.6420005196 -2.5041711485 0.5243391974
-6.8615800067 -2.5092196088 0.4949433154
-7.9533545183 -2.5332305480 0.4040167158
-8.6024597954 -2.5464804779 0.4018191378
-9.0394299875 -2.5561174157 0.3640350493
-9.2601205662 -2.5613484829 0.3265998516
-10.3530710824 -2.5854869223 0.2304100940
-11.4437579091 -2.6091655571 0.1551687723
-11.6652751172 -2.6145075214 0.1129060878
-12.7618306407 -2.6391794898 -0.0065535277
-13.9486403666 -2.6795621839 -0.8274964824
-14.8341599932 -2.7335243423 -2.6450610882
-15.1163746622 -2.7490990048 -3.1422834572
-15.3848089073 -2.7622334393 -3.5302634796
-15.6434439539 -2.7736324736 -3.8405980788
13.3019650586 -1.8740313287 0.8786854149
12.9091872418 -1.8705884875 1.4718192983
6.4177384495 -2.0034181771 1.4374284444
5.7700365794 -2.0164008659 1.4480090707
5.1226574013 -2.0293245172 1.4613141790
4.4714812254 -2.0431861542 1.4300529870
4.2531808095 -2.0481018202 1.4055866014
3.8155655110 -2.0581653829 1.3458083948
3.5963946280 -2.0632753942 1.3122246453
3.3776317013 -2.0682836647 1.2835042068
2.9446050461 -2.0772379980 1.2763088739
2.7304704064 -2.0811656594 1.2987528994
2.3030638111 -2.0888388969 1.3520559913
2.0883955973 -2.0929065254 1.3677716400
1.8727867735 -2.0971917656 1.3731777142
1.4388584200 -2.1063814026 1.3547885514
1.2207145482 -2.1112402995 1.3331800919
0.7835887876 -2.1211341364 1.2816401624
0.5655151344 -2.1259669974 1.2612543622
0.3479725999 -2.1306808876 1.2465132289
-0.0868886997 -2.1400543996 1.2195546236
-0.3044915751 -2.1447761470 1.2044304523
-0.7387547242 -2.1540131907 1.1839575693
-0.9557437010 -2.1585999405 1.1751973752
-1.1732165539 -2.1632899997 1.1616178741
-1.6091292460 -2.1728694436 1.1250949339
-1.8267989963 -2.1775947968 1.1098317834
-2.4772958450 -2.1912421519 1.0889349352
-3.1264197150 -2.2046069939 1.0812426438
-3.5620429505 -2.2141055788 1.0486338987
-3.7799835795 -2.2188777802 1.0312427642
-4.2138906164 -2.2280208259 1.0152656329
-4.4298748602 -2.2323975092 1.0163281203
-4.8600404247 -2.2407974804 1.0349036452
-5.2873371023 -2.2486432749 1.0792044068
-5.5018728527 -2.2527471225 1.0928780025
-6.1595158876 -2.2678024692 1.0065316547
-6.6008245820 -2.2783738810 0.9242441514
-6.8197894914 -2.2833279415 0.8985408955
-7.2560185061 -2.2929020416 0.8626361676
-7.4739772359 -2.2976576592 0.8461756616
-7.9085834916 -2.3069160030 0.8249314182
-8.5550861339 -2.3197927226 0.8397532384
-9.2091009925 -2.3340678958 0.7900173140
-9.6483934038 -2.3441761039 0.7296647879
-9.8662063303 -2.3488911969 0.7151308560
-10.2994464424 -2.3578860065 0.7060836454
-10.5158039174 -2.3623368859 0.7037031045
-10.9495858941 -2.3714324280 0.6900794371
-11.6104669621 -2.3868783529 0.5868361059
-12.0476661573 -2.3965607939 0.5463751785
-12.2644032480 -2.4010730361 0.5412382887
-12.4814269196 -2.4056352344 0.5337898597
-12.9172423897 -2.4150642585 0.5049463773
-13.3646161951 -2.4264790096 0.3853796927
-13.6095095686 -2.4358124586 0.1600001345
-13.8818576888 -2.4498073213 -0.2781113480
12.6982159553 -1.6552948795 1.6061918548
11.6224154425 -1.6757222870 1.6855221426
10.7563019528 -1.6936803570 1.6689629613
9.2337829248 -1.7269422075 1.5498155457
9.0160861255 -1.7317336540 1.5308274197
8.3668516939 -1.7450947940 1.5237584740
7.9355778906 -1.7536091076 1.5382939033
6.6350279921 -1.7808949862 1.4963733742
5.9866435640 -1.7940758655 1.4979941422
5.5550485106 -1.8027107759 1.5064472127
5.3393498287 -1.8070068631 1.5116681817
4.2546422814 -1.8299856476 1.4649880298
3.1639614437 -1.8543145139 1.3529157660
2.9485871837 -1.8585427840 1.3614413294
0.5739287792 -1.9064349618 1.3875206400
-0.5136281191 -1.9299951910 1.3129631781
-0.7301863126 -1.9345023251 1.3079221562
-1.3801823775 -1.9480926481 1.2895098814
-1.8157882322 -1.9576209098 1.2547949165
-3.1127394575 -1.9841803476 1.2476226737
-3.7653247677 -1.9982873411 1.2045140203
-4.1990848271 -2.0074295169 1.1882808361
-4.4152169664 -2.0118545915 1.1871726082
-5.4867127821 -2.0322335070 1.2644232290
-6.3618024099 -2.0519798235 1.1624667101
-6.8004790390 -2.0620470010 1.1024180862
-7.8877117491 -2.0854103576 1.0379724635
-8.7491506068 -2.1025711413 1.0587820160
-9.1838164326 -2.1118722820 1.0351093877
-10.2707218800 -2.1351536948 0.9747163132
-10.4872135401 -2.1396501152 0.9701500191
-11.1410068589 -2.1538950460 0.9209835820
-11.5819712062 -2.1642666187 0.8471893373
-12.8809800487 -2.1912309857 0.8207518293
-13.5651437467 -2.2105296547 0.5356871677
-15.6544610006 -2.3359255246 -3.8699613790
14.8059271130 -1.4725853044 -2.6128820689
14.6046466606 -1.4717872758 -2.3452308930
14.4076808797 -1.4697547025 -2.0148666332
13.6645990872 -1.4492744021 -0.0690641681
13.4822615786 -1.4434745463 0.4507310008
13.1027191745 -1.4365962949 1.2489438073
12.9016832238 -1.4365604570 1.4747795812
12.6934788156 -1.4386357735 1.5932959294
12.4806415702 -1.4420587048 1.6433373795
12.0506128573 -1.4501709944 1.6791342171
11.6189602243 -1.4587565841 1.6908831272
11.1854508501 -1.4678642951 1.6762585823
10.9686063221 -1.4724416219 1.6677307109
10.3178382946 -1.4862337914 1.6391499131
10.1008737851 -1.4908405562 1.6291386315
9.6668437806 -1.5000792409 1.6079078918
9.4493016698 -1.5048343548 1.5904648771
9.0132161147 -1.5145954403 1.5429932492
8.7957541441 -1.5193199664 1.5270631675
8.3630468903 -1.5282044806 1.5237373458
8.1470751544 -1.5325508362 1.5268151269
7.9309964149 -1.5369276853 1.5284251290
7.4981292634 -1.5458607577 1.5225617425
7.2812366292 -1.5504413627 1.5138953430
6.8477238303 -1.5595354373 1.4999727950
6.6314941115 -1.5639560752 1.4993812934
6.4154102038 -1.5683407992 1.5005027056
5.9830824575 -1.5771547194 1.5005591035
5.7669701723 -1.5815520719 1.5010693381
5.3354128811 -1.5901941629 1.5096763316
5.1196966282 -1.5945029977 1.5145460399
4.9035191354 -1.5989223438 1.5139252332
4.4691784490 -1.6082200188 1.4897717528
4.2515749732 -1.6129669497 1.4728462227
3.8159152032 -1.6225561425 1.4342679741
3.5976375594 -1.6274480761 1.4101525819
3.3796238788 -1.6322778221 1.3891724894
2.9476941916 -1.6410167774 1.3928557800
2.7339019996 -1.6449094103 1.4183616520
2.0923793361 -1.6566537048 1.4913041006
1.6624563705 -1.6649970013 1.5144044680
1.4462002018 -1.6694512529 1.5119196337
1.2284428691 -1.6742283497 1.4935404307
0.5743918181 -1.6887084873 1.4310119582
-0.0765498014 -1.7025199428 1.4016180881
-0.2949381261 -1.7074132080 1.3775305608
-0.7292677323 -1.7166891791 1.3545984372
-0.9450796236 -1.7210495538 1.3567948131
-1.3786886884 -1.7301756584 1.3411757066
-1.5968791382 -1.7350186070 1.3196571641
-1.8152289435 -1.7398916734 1.2967000846
-2.2496394403 -1.7491717935 1.2736286557
-2.4649784236 -1.7534406217 1.2802932053
-2.8943532389 -1.7617279101 1.3058182580
-3.1101931033 -1.7661020545 1.3072660474
-3.3270959811 -1.7706853712 1.2984925798
-3.7621773706 -1.7800966775 1.2689639910
-3.9794658181 -1.7847516861 1.2566860073
-4.4129188970 -1.7938450741 1.2427496341
-4.6294119776 -1.7983465887 1.2379696619
-4.8454625384 -1.8027659234 1.2372297987
-5.2736732672 -1.8108725095 1.2712842886
-5.4867387038 -1.8147384846 1.2974638764
-6.1377322097 -1.8285480748 1.2681602994
-6.5775822922 -1.8388279683 1.1965284976
-6.7961342045 -1.8437096890 1.1733070991
-7.0136388491 -1.8483972724 1.1594823518
-7.4479246856 -1.8576395892 1.1383370734
-7.6653988349 -1.8623185204 1.1249404195
-8.0994266176 -1.8715107527 1.1062587051
-8.3151294907 -1.8758714975 1.1082745032
-8.5300242120 -1.8800909265 1.1171323142
-8.9605079290 -1.8886592403 1.1285734172
-9.1775058890 -1.8932539411 1.1192634486
-9.8293096583 -1.9071771234 1.0846594128
-10.0451295149 -1.9115666092 1.0852834893
-10.4777353299 -1.9205135560 1.0783731888
-10.6951004144 -1.9251707613 1.0661086675
-11.1328794333 -1.9349985336 1.0168259723
-11.3529910166 -1.9401169472 0.9824098403
-11.5722488349 -1.9450864801 0.9551725866
-12.0046744168 -1.9539940938 0.9502050255
-12.2193850597 -1.9581980251 0.9597235707
-12.6508448662 -1.9669506611 0.9621512572
-12.8671815245 -1.9714294937 0.9584587313
-13.0843830587 -1.9760503885 0.9479228203
-13.5447845983 -1.9895526513 0.7232129008
-13.8136173659 -2.0025928528 0.3104310742
-14.7916975575 -2.0691318926 -2.2342471816
-15.1052034464 -2.0890636577 -2.9736470754
-15.3913286136 -2.1044966244 -3.4978061932
-15.6585371894 -2.1168277738 -3.8737037186
14.8025916472 -1.2534108944 -2.6037640463
13.8429024666 -1.2372603091 -0.5989386647
13.2914423210 -1.2218952632 0.8944755175
11.8308594506 -1.2376276687 1.6838562541
10.9633621267 -1.2559623757 1.6483070520
10.5296100889 -1.2651268151 1.6306697226
2.3029824687 -1.4358006789 1.4727085727
0.7879215612 -1.4672320974 1.4436542650
-9.8316056430 -1.6901191376 1.0956051491
-10.2622843197 -1.6987451305 1.1046761574
-10.4789631503 -1.7032853798 1.0979838350
-10.9157023424 -1.7129296510 1.0568455790
-11.1349517816 -1.7178957540 1.0292265758
-11.5717117194 -1.7275310983 0.9886220527
-12.2179089306 -1.7405092887 1.0002629366
-12.8658892397 -1.7537889073 0.9970097663
-13.3031768669 -1.7634963236 0.9529583291
-13.5393601311 -1.7711545991 0.7936528802
14.5982891474 -1.0336355549 -2.3224591224
14.4015601738 -1.0318679625 -1.9887804477
14.2098694106 -1.0287426313 -1.5826920012
14.0230050444 -1.0243482463 -1.1090832734
13.4749114665 -1.0084013127 0.4565135598
12.8918912150 -1.0031823147 1.4443041039
12.6836629743 -1.0053838713 1.5626105828
12.2569357078 -1.0126338446 1.6470574710
12.0420849109 -1.0166725802 1.6671357435
11.6100393736 -1.0253854372 1.6734117003
10.9584882062 -1.0393730256 1.6339593001
10.3077230305 -1.0531480839 1.6058819759
9.8750061786 -1.0620451916 1.6023272712
9.6589524804 -1.0664193291 1.6044723591
9.2249516472 -1.0756404649 1.5837609996
9.0069009254 -1.0805068575 1.5598793839
8.5710407319 -1.0901696708 1.5158462709
8.3537187298 -1.0948506765 1.5018272382
7.9197405796 -1.1040483434 1.4824443712
7.2692864798 -1.1177188949 1.4599915347
6.6209754668 -1.1308940845 1.4635994388
6.1888127833 -1.1396754728 1.4661024660
5.9725800863 -1.1441019302 1.4654194606
5.5404984276 -1.1528745448 1.4683518229
5.3251573235 -1.1571060628 1.4778710861
4.8947789658 -1.1655127779 1.4998781008
4.2437193393 -1.1793431623 1.4689546708
3.5905809792 -1.1936127195 1.4151163664
3.1577112900 -1.2025721044 1.4081541862
2.9427366440 -1.2067439673 1.4207044549
2.5133592985 -1.2149784450 1.4514204696
1.8668556596 -1.2278638337 1.4696637990
1.6520913655 -1.2320111062 1.4833485951
1.2194662858 -1.2409486228 1.4773691520
0.3487909998 -1.2599158574 1.4088350890
-0.0837022162 -1.2688232548 1.4043698713
-0.5180383302 -1.2780972802 1.3810098645
-0.7343644314 -1.2825679320 1.3779129635
-1.1670888987 -1.2915259691 1.3708932229
-1.3850710997 -1.2963180565 1.3512107825
-1.8230624617 -1.3062836261 1.2922445323
-2.4740469892 -1.3200693976 1.2637650780
-3.1175775888 -1.3324613136 1.3069594594
-3.5508782324 -1.3415306250 1.2941562037
-3.7683460951 -1.3462152260 1.2800267900
-4.2028800672 -1.3555097221 1.2557309686
-4.4201646568 -1.3601580569 1.2434986597
-4.8556381622 -1.3696169858 1.2108158130
-5.5013987535 -1.3824631617 1.2303895605
-6.1490574798 -1.3956634710 1.2318303722
-6.8039328400 -1.4101300774 1.1686548777
-7.2366222778 -1.4190906526 1.1614222661
-7.4527469191 -1.4235335910 1.1597192070
-7.8863247631 -1.4326482128 1.1446197497
-8.1033852300 -1.4372522207 1.1347281888
-8.5369525236 -1.4463636690 1.1197816105
-9.1877187640 -1.4601007847 1.0939022508
-9.6227010237 -1.4694456460 1.0671687305
-11.3586111125 -1.5061414761 0.9950864823
-12.0044533532 -1.5190757886 1.0096364699
-12.6532354165 -1.5324901816 0.9999994082
-13.5402523099 -1.5538165679 0.8146119003
-13.8051437121 -1.5658527061 0.4322697431
-14.1113465213 -1.5842533864 -0.2685316937
-14.4481806281 -1.6073023936 -1.2014340573
-14.7888293640 -1.6308200364 -2.1568501191
-15.1062654557 -1.6506467734 -2.9266987891
-15.3940103469 -1.6658259759 -3.4634158298
-15.6615761508 -1.6778546814 -3.8421586160
14.9992177465 -0.8149851074 -2.8251038731
14.5948072039 -0.8146682665 -2.3158115320
14.3982421569 -0.8130236000 -1.9797264792
14.2066233141 -0.8100819218 -1.5726827020
14.0198329030 -0.8059041799 -1.0981174056
13.8367476324 -0.8008243255 -0.5745269760
13.6550861722 -0.7954857485 -0.0372564069
13.4718871544 -0.7906979639 0.4691439844
13.2842632978 -0.7872303320 0.9025832653
13.0899017189 -0.7856759096 1.2306310540
12.8880460843 -0.7861991244 1.4444313706
12.6796380824 -0.7885094027 1.5600492276
12.4671415393 -0.7919239301 1.6151084235
12.0380211081 -0.7998687790 1.6639955870
11.8223912293 -0.8041278458 1.6727297815
11.6057559589 -0.8086486161 1.6671375104
11.1712207167 -0.8180112407 1.6384759435
10.9542508113 -0.8226150207 1.6283727815
10.5200832418 -0.8318758154 1.6052455546
10.3027966024 -0.8365553522 1.5910287880
10.0858829937 -0.8411412285 1.5819344083
9.6537960820 -0.8498879758 1.5867901470
9.4377746037 -0.8542595576 1.5893330436
9.0034724058 -0.8635472711 1.5648135944
8.7853465554 -0.8684199272 1.5401055925
8.3490706156 -0.8781619090 1.4910554307
8.1314703194 -0.8829000126 1.4736867352
7.9142436781 -0.8875514432 1.4611046806
7.4803818205 -0.8967129664 1.4435103578
7.2637475293 -0.9012254502 1.4384218319
6.8311462943 -0.9101004819 1.4363354216
6.6150017307 -0.9145040250 1.4370741827
6.3989841080 -0.9188819382 1.4392661162
5.9673487600 -0.9275527895 1.4480860464
5.7515077744 -0.9318970409 1.4520375550
5.3205226691 -0.9404384234 1.4677418502
5.1055918852 -0.9445922930 1.4818962505
4.8904341260 -0.9487989331 1.4931755705
4.4574570232 -0.9577892289 1.4846845230
4.2398310555 -0.9625259992 1.4674678795
3.8042970585 -0.9720536155 1.4301887473
3.5871001973 -0.9766950448 1.4181416330
3.3706249179 -0.9811849245 1.4141711665
2.9397196780 -0.9897454497 1.4287020757
2.7244076653 -0.9940004088 1.4372912283
2.2919582309 -1.0028897620 1.4341704921
1.8600464694 -1.0116739907 1.4366339899
1.6452475576 -1.0158356435 1.4500893503
1.4299158170 -1.0201081392 1.4576858825
1.2127697101 -1.0247420531 1.4459604889
0.7750480223 -1.0346834016 1.3868167378
0.5572808196 -1.0394329800 1.3689861398
-0.0906528185 -1.0526371920 1.3711381577
-0.3068453614 -1.0570817960 1.3695251239
-0.7388240461 -1.0658962761 1.3702621762
-0.9547820517 -1.0702991505 1.3708375077
-1.3895807610 -1.0796510503 1.3431160023
-1.6083132184 -1.0845752015 1.3161344443
-1.8272069184 -1.0895248204 1.2877905019
-2.2631895916 -1.0990819124 1.2493100474
-2.4793120266 -1.1035133641 1.2484008414
-2.9086715979 -1.1118513979 1.2742335631
-3.1235647282 -1.1160649512 1.2848170859
-3.3393585228 -1.1204431455 1.2866632634
-3.7731568168 -1.1296006923 1.2692383715
-3.9903666912 -1.1342351510 1.2576336114
-4.4248746822 -1.1435162800 1.2337350556
-4.6428642144 -1.1482849578 1.2150290834
-4.8610698041 -1.1530911751 1.1944405171
-5.2944012971 -1.1621580026 1.1818349643
-5.5092062181 -1.1663670727 1.1924968677
-5.9394497971 -1.1749041220 1.2076236353
-6.1561676397 -1.1794500598 1.2006556360
-6.5917449196 -1.1889070905 1.1676036022
-6.8088376646 -1.1935155025 1.1573753910
-7.0247312588 -1.1979198833 1.1577996321
-7.4553473724 -1.2065354697 1.1687351526
-7.6713194333 -1.2109555543 1.1682568986
-8.1047568861 -1.2200496988 1.1541987515
-8.3221519923 -1.2247076432 1.1413684038
-8.5398472415 -1.2294158404 1.1259818203
-8.9757507600 -1.2389107577 1.0911055809
-9.1941808107 -1.2437340913 1.0697331563
-9.6298119054 -1.2531746953 1.0376872425
-9.8454475580 -1.2575415176 1.0400562033
-10.0599761313 -1.2617313794 1.0515642626
-10.4914791550 -1.2705090587 1.0539306916
-10.7098782340 -1.2753210330 1.0332001009
-11.1476591270 -1.2850944476 0.9840223158
-11.3643753064 -1.2896351289 0.9773749077
-11.5791460824 -1.2938697900 0.9865112434
-12.0076615659 -1.3021849612 1.0126388785
-12.2236240467 -1.3066124221 1.0118098402
-12.6573784045 -1.3157510388 0.9954697553
-12.8735461956 -1.3202105721 0.9929414708
-13.3092046047 -1.3296402163 0.9616581544
-13.5429252453 -1.3367755096 0.8215931622
-13.8065721902 -1.3484400393 0.4489363230
-14.1122953894 -1.3664311115 -0.2481566175
-14.4495147955 -1.3890880081 -1.1840608954
-14.7910579112 -1.4122786015 -2.1464143251
-15.1088793708 -1.4317920201 -2.9192468011
-15.3963299067 -1.4466698428 -3.4537069825
12.8847447088 -0.5690790761 1.4524786952
12.6761580978 -0.5714962545 1.5654384398
11.6013528593 -0.5919407359 1.6592118932
10.7330554100 -0.6104533881 1.6128969539
10.2980110947 -0.6199187383 1.5780866596
9.6480666770 -0.6334799578 1.5615226814
9.2160984000 -0.6422116404 1.5677248548
8.9992060619 -0.6467916292 1.5588904340
8.3446080637 -0.6614241297 1.4826690715
7.9091582936 -0.6709451539 1.4449488531
7.0419989116 -0.6891332090 1.4170546344
6.6089463577 -0.6981124519 1.4095388201
5.9624089788 -0.7109287852 1.4342394419
5.5315693459 -0.7194478460 1.4520236914
5.3161929682 -0.7237019195 1.4611763373
4.6699450557 -0.7365080076 1.4861891953
4.2359405742 -0.7457134767 1.4659353811
3.1519974169 -0.7685013705 1.4278355356
2.9362829328 -0.7728439250 1.4320650225
2.2860229830 -0.7864965642 1.4103189016
1.8535218570 -0.7954001926 1.4066628386
1.6384991284 -0.7996139017 1.4178541034
0.5492462917 -0.8234219605 1.3240651868
-0.5292508877 -0.8451752110 1.3424209182
-0.7445660705 -0.8494601275 1.3496517465
-1.3945670871 -0.8630679618 1.3302624881
-1.8313142294 -0.8727610369 1.2836884945
-2.7004291300 -0.8913338929 1.2347590999
-3.1303886153 -0.8997992297 1.2546708383
-3.7786585112 -0.9131007007 1.2519306055
-4.2127005232 -0.9222952876 1.2324085929
-4.4299740002 -0.9269359642 1.2203442888
-5.0840189863 -0.9412323028 1.1639644931
-5.5163810982 -0.9501324266 1.1603575523
-6.3797518665 -0.9677144715 1.1647769102
-6.8131000006 -0.9767879662 1.1518199008
-7.4579563880 -0.9895518173 1.1776750413
-7.8899366279 -0.9984089436 1.1762295071
-8.1066846673 -1.0029609274 1.1688791479
-8.7608674513 -1.0172495400 1.1131677014
-9.1989865309 -1.0270841829 1.0596003400
-10.2807198373 -1.0495050927 1.0411985329
-10.4972030296 -1.0540112934 1.0363273335
-11.1535230771 -1.0685924396 0.9654378584
-11.5845186378 -1.0772974921 0.9719990750
-12.4446918558 -1.0944500642 0.9987197697
-12.8777486828 -1.1034825412 0.9879220046
14.9912036686 -0.3768532782 -2.8279397628
14.5867201201 -0.3770718188 -2.3200809122
14.3903709179 -0.3757049932 -1.9807578651
14.0128557967 -0.3692291411 -1.0859074307
13.4661950655 -0.3552534866 0.4996662852
13.2784067254 -0.3522625765 0.9302931097
13.0836699656 -0.3511353176 1.2524362528
12.4598137693 -0.3580628882 1.6203700614
12.0293793833 -0.3663942450 1.6503761963
11.8131982478 -0.3708031651 1.6513433487
11.1622882512 -0.3846048986 1.6209265966
10.5109879783 -0.3984927275 1.5856616797
10.0758106886 -0.4079728661 1.5494282204
8.7768759210 -0.4348761877 1.5290691192
8.1222531961 -0.4494759795 1.4532278021
7.4708457895 -0.4633437133 1.4193341175
6.8199331963 -0.4770973620 1.3919549592
6.3873724075 -0.4859722618 1.3904957474
5.0965549630 -0.5112138647 1.4643911524
4.4490541744 -0.5243028651 1.4745529124
3.7972545873 -0.5382625895 1.4353835754
3.5805854857 -0.5427948520 1.4291494047
2.7158097733 -0.5605560052 1.4250333279
1.4165643636 -0.5876190969 1.3950501318
1.1989875030 -0.5923252856 1.3790554633
0.7606843261 -0.6023192685 1.3144314211
0.1088120518 -0.6162548538 1.2768936667
-0.1064909313 -0.6205342958 1.2848729910
-0.9667350545 -0.6374993777 1.3250867939
-1.6176246038 -0.6512627442 1.2970823480
-2.2724245593 -0.6657086387 1.2311282249
-2.9222891908 -0.6792788455 1.2139861522
-3.3528881306 -0.6878722628 1.2277315873
-4.6525759454 -0.7150225899 1.1928378884
-5.3061674577 -0.7292192414 1.1410018607
-5.9536914778 -0.7424093799 1.1448282649
-6.6015168365 -0.7556579334 1.1453503053
-7.0316238938 -0.7642086606 1.1611376846
-8.3274758074 -0.7907767407 1.1578875583
-8.9826005945 -0.8051925666 1.0942917050
-9.6385083191 -0.8197113066 1.0252124026
-9.8545689340 -0.8241511837 1.0240301049
-10.7193464073 -0.8419996042 1.0144034613
-11.3750663789 -0.8564596390 0.9487478974
-12.0174917528 -0.8689324970 0.9911476910
-12.6656594132 -0.8822713902 0.9864410696
-13.3172880450 -0.8961183127 0.9541754242
-13.5505324461 -0.9030548052 0.8178417078
-13.8138329504 -0.9143123320 0.4479432292
-15.4066463156 -1.0092053743 -3.4778208016
14.9876157271 -0.1576839308 -2.8227682986
14.5826456960 -0.1582837303 -2.3226665618
14.3861850219 -0.1571164904 -1.9851413291
14.1950196639 -0.1546670320 -1.5713942107
14.0089847882 -0.1510045195 -1.0856269423
13.8267512340 -0.1464918139 -0.5495320680
13.6457223037 -0.1417961703 -0.0032573196
13.4627128781 -0.1377197180 0.5054338062
13.2747894385 -0.1349773863 0.9339127112
13.0798655991 -0.1340579690 1.2532178873
12.8774304429 -0.1350505553 1.4582081094
12.6685191938 -0.1376656950 1.5663100619
12.4553577386 -0.1413343158 1.6116023618
12.0241156045 -0.1498791242 1.6301870973
11.8077252313 -0.1543400607 1.6282948530
11.5909776622 -0.1588852029 1.6213719119
11.1570459427 -0.1680771403 1.6014554178
10.9401788874 -0.1726494065 1.5929115354
10.5061439166 -0.1818605852 1.5718782360
10.2887660051 -0.1865487486 1.5565598507
10.0712153609 -0.1912726743 1.5390696828
9.6365209665 -0.2006235929 1.5098539303
9.4199509182 -0.2051234769 1.5056065672
8.9881466191 -0.2138320604 1.5143015026
8.7717674479 -0.2182941768 1.5123026639
8.3364703061 -0.2277684334 1.4758980307
8.1184153927 -0.2325896391 1.4527630771
7.9007999555 -0.2373136218 1.4353476798
7.4667127141 -0.2465138564 1.4151221828
7.2496111347 -0.2511247838 1.4043592784
6.8149584560 -0.2604398229 1.3774648062
6.5981449400 -0.2649889530 1.3703723758
6.3823093808 -0.2693362947 1.3750572484
5.9531292680 -0.2775314203 1.4136730122
5.7385341790 -0.2816368720 1.4324770348
5.3077884183 -0.2901721542 1.4510278489
5.0921472885 -0.2944972318 1.4569233066
4.8765592672 -0.2988143545 1.4632779869
4.4445339080 -0.3076217170 1.4658464291
4.2275682667 -0.3122135147 1.4561705936
3.7930254454 -0.3215139179 1.4300266960
3.5766844462 -0.3259834778 1.4274639541
3.3610496253 -0.3303187102 1.4327337272
2.9290639345 -0.3391298672 1.4349978181
2.7117771380 -0.3437823734 1.4218339330
2.2762308762 -0.3532656270 1.3851638336
2.0592828652 -0.3578502633 1.3759158277
1.6275029670 -0.3666281895 1.3800929614
1.4111217666 -0.3711093297 1.3768270727
1.1933781789 -0.3758400209 1.3591338370
0.7553065343 -0.3857658953 1.2970789690
0.5365805356 -0.3906663119 1.2696537898
0.1021693537 -0.3999151514 1.2467186776
-0.1135827167 -0.4042786403 1.2502301456
-0.3287088775 -0.4085345169 1.2599999596
-0.7584741727 -0.4169652593 1.2840084891
-0.9736959637 -0.4212446366 1.2923410996
-1.4058387316 -0.4301051018 1.2916400695
-1.6228303280 -0.4346950460 1.2821009869
-1.8404925102 -0.4394002080 1.2659819907
-2.2771342365 -0.4490321121 1.2211342787
-2.4951086996 -0.4537850346 1.2023211978
-2.9285976457 -0.4628713935 1.1886891532
-3.1444476345 -0.4672653845 1.1904276004
-3.3600597674 -0.4716193880 1.1943851040
-3.7917856184 -0.4804161292 1.1972354699
-4.0081607180 -0.4849015681 1.1937407868
-4.4405762801 -0.4938166804 1.1897970546
-4.6569170654 -0.4982974642 1.1865168765
-4.8741222063 -0.5029193846 1.1752325212
-5.3105224583 -0.5124808807 1.1345731168
-5.5281244100 -0.5171631871 1.1198904744
-5.9602748417 -0.5260369939 1.1182886103
-6.1756107695 -0.5303582334 1.1240692702
-6.6063831564 -0.5390200278 1.1344222144
-6.8211454201 -0.5432551011 1.1449639195
-7.0354157483 -0.5474169967 1.1597305559
-7.4660610750 -0.5560730088 1.1702697052
-7.6830063284 -0.5606551203 1.1612202295
-8.1164491696 -0.5697481861 1.1470702708
-8.3325349282 -0.5741980454 1.1454753331
-8.5489040305 -0.5786915574 1.1414159760
-8.9846574706 -0.5881356013 1.1075496448
-9.2039013438 -0.5930625674 1.0791504310
-9.6405916030 -0.6026371963 1.0380261479
-9.8569637719 -0.6071279279 1.0341498948
-10.0725265246 -0.6114973940 1.0370094946
-10.5042939116 -0.6203369142 1.0371722735
-10.7220206757 -0.6250288562 1.0219981540
-11.1607661263 -0.6348908733 0.9649340157
-11.3788656703 -0.6396329180 0.9470338570
-11.5946106183 -0.6440319219 0.9483016026
-12.0226803837 -0.6523379492 0.9781971352
-12.2375621861 -0.6566164720 0.9861104470
-12.6698446851 -0.6655378904 0.9815745643
-12.8860753967 -0.6700132721 0.9785412793
-13.3220824861 -0.6794648630 0.9445162312
-13.5563462299 -0.6864821758 0.8002334372
-13.8210527486 -0.6977593411 0.4194263932
-14.1280955810 -0.7149239372 -0.2877481381
-14.4659883523 -0.7363147450 -1.2286173360
-14.8079920356 -0.7581710444 -2.1942375557
-15.1261503711 -0.7766081529 -2.9693775383
-15.6786705876 -0.8016695557 -3.8631729954
14.7799031160 0.0606625184 -2.5914092127
13.2706713281 0.0821784193 0.9301170637
12.8725860741 0.0816698512 1.4437189084
12.6633145392 0.0789138914 1.5466546661
12.2344809586 0.0709327617 1.6008195023
12.0184458198 0.0665559255 1.6042328300
11.5855533563 0.0576091618 1.5991329776
10.9347819654 0.0438608100 1.5714210981
10.2843269615 0.0301865491 1.5482658005
9.8491559136 0.0207363592 1.5125507096
9.6314306755 0.0159843725 1.4930411690
9.1980565151 0.0069326356 1.4816100656
8.9823840345 0.0026236171 1.4890162297
8.5500017714 -0.0062219483 1.4900193676
8.3326519174 -0.0108893189 1.4756936909
7.8973909821 -0.0203376197 1.4402206881
7.2454055806 -0.0343097377 1.3992144175
6.5934610520 -0.0482609792 1.3594760881
6.1627472978 -0.0567779827 1.3802416636
5.9483292072 -0.0608555513 1.4014927772
5.5186715154 -0.0691863271 1.4333813898
5.3032246213 -0.0734766346 1.4417393889
4.8719260704 -0.0821441339 1.4532250606
4.2219866557 -0.0957287967 1.4354096383
3.5717336680 -0.1093722984 1.4140299195
3.1413638269 -0.1178869573 1.4344831527
2.9251143130 -0.1223453349 1.4327012033
2.4899115053 -0.1317573513 1.3995804177
2.2723254866 -0.1364582308 1.3833256858
1.8393406917 -0.1454609324 1.3746057956
1.6232538378 -0.1498908954 1.3745221723
1.1888161102 -0.1591547493 1.3502734412
0.5326014275 -0.1738431908 1.2669274058
-0.1196854765 -0.1878243780 1.2257154731
-0.5507589067 -0.1964903087 1.2369775405
-0.7657019331 -0.2007247763 1.2484311645
-1.1959646552 -0.2092652363 1.2670246243
-1.4118057952 -0.2136580902 1.2690381684
-1.8455642080 -0.2227956156 1.2523619314
-2.4994907329 -0.2370431002 1.1955250991
-3.1501894323 -0.2507465782 1.1706695059
-3.5825214013 -0.2596454822 1.1680713031
-3.7985438745 -0.2640725645 1.1680655304
-4.2303084353 -0.2728843562 1.1705031040
-4.4455397288 -0.2771884693 1.1776755991
-4.8773358454 -0.2860117392 1.1793491422
-5.5324905336 -0.3004200819 1.1133696455
-6.1815287019 -0.3138667102 1.1036205151
-6.8256204930 -0.3265609187 1.1375257663
-7.2547492210 -0.3349945626 1.1617028323
-7.4714025878 -0.3395304080 1.1552553523
-7.9068785024 -0.3489276012 1.1234866223
-8.1232845731 -0.3534258710 1.1192432451
-8.5533653981 -0.3620171501 1.1341621525
-9.2053711033 -0.3759270896 1.0973227565
-9.8590575370 -0.3900748608 1.0468114062
-10.2910122426 -0.3989483961 1.0453976390
-10.5073351115 -0.4034350870 1.0417668293
-10.9437794599 -0.4129518906 1.0032888118
-11.1633333230 -0.4178981615 0.9732942237
-11.5984341909 -0.4272156458 0.9463735130
-12.2418243778 -0.4398899202 0.9806466357
-12.8903813833 -0.4532980438 0.9727255094
-13.5638160829 -0.4701231242 0.7696555194
14.9803094279 0.2805968014 -2.8144120303
14.5749082561 0.2793827293 -2.3214772677
14.3780692992 0.2801223321 -1.9899636532
14.1867313742 0.2821163695 -1.5790146842
14.0007806398 0.2853168840 -1.0921137564
13.8187647924 0.2893509025 -0.5528957976
13.6379034986 0.2935450056 -0.0042925890
13.4548337587 0.2971012879 0.5033008245
13.0707140756 0.2997218267 1.2320757385
11.7968624653 0.2786586485 1.5834191701
11.1464880667 0.2650056480 1.5614869599
10.4965832254 0.2514547458 1.5459927180
8.1116535586 0.2013551953 1.4633354943
7.4590153389 0.1872557695 1.4137188332
6.8056000281 0.1730207398 1.3557181151
5.0824798973 0.1387838649 1.4320902480
4.4328859544 0.1252690587 1.4186184511
3.7811581176 0.1113606419 1.3809305476
1.4024906448 0.0623399706 1.3643085302
0.7481656803 0.0479987443 1.3001951505
0.0927535882 0.0334921368 1.2262401752
-1.6338393151 -0.0016275985 1.2462304766
-2.2860478756 -0.0155810547 1.2061038826
-2.9371950764 -0.0293575860 1.1767495051
-4.6650109299 -0.0647529826 1.1793385427
-5.3171682977 -0.0786844150 1.1406328362
-5.9705821142 -0.0927981360 1.0910586553
-6.6161298538 -0.1057299683 1.1123971665
-8.3442521625 -0.1412486396 1.1068882296
-8.9887034730 -0.1540652627 1.1346186039
-9.6439527104 -0.1684275194 1.0704068203
-11.3850033248 -0.2057877662 0.9554717197
-12.0306832596 -0.2187991358 0.9714336288
-12.6776182825 -0.2319917168 0.9765881514
-13.3338518853 -0.2464365363 0.9080632635
-13.5722215805 -0.2538649559 0.7317269696
-13.8419012782 -0.2654353625 0.3123801844
-14.1518254138 -0.2822934066 -0.4167325494
-14.4891220790 -0.3026881641 -1.3524147063
-14.8277569670 -0.3231602964 -2.2915177558
-15.1426862923 -0.3404193007 -3.0414042817
-15.4282063544 -0.3537533860 -3.5605685729
-15.6920389588 -0.3642032392 -3.9104553944
13.8148178512 0.5072794766 -0.5538589352
13.6341130211 0.5112357192 -0.0030286746
13.4511288456 0.5145610076 0.5057512101
13.2625823210 0.5165213817 0.9247276273
13.0662992891 0.5166570381 1.2238820026
12.8620588675 0.5149513065 1.4025374629
12.6516002617 0.5118278609 1.4884579802
12.4377176423 0.5079295595 1.5237825649
12.0074498111 0.4995650006 1.5571999510
11.7918234039 0.4952692579 1.5665006639
11.5755312039 0.4908263044 1.5662444376
11.1414681013 0.4816239451 1.5450726671
10.9245282788 0.4770440085 1.5358399673
10.4919312503 0.4681505347 1.5347929098
10.2757075804 0.4637183304 1.5351641924
10.0588695855 0.4591585760 1.5272620553
9.6233073143 0.4496543064 1.4865754370
9.4056344573 0.4449270886 1.4679216020
8.9727195872 0.4359684762 1.4625314307
8.7570662949 0.4316478105 1.4700912204
8.3250744369 0.4228648252 1.4760197396
8.1082945576 0.4183164815 1.4688975638
7.8909863081 0.4136662851 1.4551679539
7.4550460034 0.4041118634 1.4115413424
7.2366429211 0.3992564530 1.3846723458
6.8006459891 0.3897080498 1.3414870471
6.5839179214 0.3851773753 1.3355568312
6.3682065849 0.3808385213 1.3418481595
5.9382438105 0.3724249864 1.3713495911
5.7231153540 0.3681858534 1.3839901282
5.2922406761 0.3595852376 1.4014098901
5.0765436478 0.3552340835 1.4068467086
4.8603564462 0.3507925263 1.4064708351
4.4257746352 0.3415098235 1.3802795187
4.2079957218 0.3367816366 1.3617300162
3.7745367614 0.3277053090 1.3486634625
3.5593368539 0.3234359712 1.3592414279
3.3445762931 0.3192409038 1.3745164611
2.9135375352 0.3105780087 1.3876731649
2.6968211139 0.3060369269 1.3809188521
2.2633011210 0.2969391823 1.3664922396
2.0472565032 0.2925129787 1.3670204550
1.6152738972 0.2836748912 1.3689495787
1.3984565360 0.2791150716 1.3610326795
1.1809911691 0.2744467596 1.3462918085
0.7451563726 0.2649645813 1.3076137509
0.5268273592 0.2601572975 1.2841966166
0.0893228132 0.2504134929 1.2291290827
-0.1290949251 0.2455994226 1.2053434451
-0.3465844804 0.2409393499 1.1911820668
-0.7785351756 0.2321092485 1.1936462558
-0.9934729051 0.2278588697 1.2051922231
-1.4235461711 0.2193192456 1.2257911289
-1.6395969966 0.2148850735 1.2258001855
-1.8564978658 0.2103171108 1.2173775008
-2.2906734451 0.2011219116 1.1969358176
-2.5069866920 0.1966465738 1.1942976016
-2.9397579356 0.1876697086 1.1875064850
-3.1573818927 0.1829911253 1.1722122334
-3.3754457088 0.1782455367 1.1527857524
-3.8099722109 0.1690033363 1.1294504511
-4.0259242208 0.1645815146 1.1301793457
-4.4552835514 0.1561178489 1.1551307442
-4.6695833579 0.1519394219 1.1708900140
-4.8849690935 0.1475955997 1.1764106122
-5.3203856007 0.1382182721 1.1446273589
-5.5388974175 0.1334122695 1.1215264097
-5.9736440883 0.1241393893 1.0963387125
-6.1897606350 0.1196872442 1.0951249305
-6.6204667039 0.1110017125 1.1061829371
-6.8352141966 0.1067443819 1.1169243608
-7.0500361082 0.1024737914 1.1268702144
-7.4832246422 0.0934232404 1.1152603664
-7.7015953462 0.0886451603 1.0939488695
-8.1354639291 0.0794995337 1.0765676349
-8.3494767556 0.0753365565 1.0930512716
-8.5624891988 0.0713112874 1.1179549429
-8.9913222292 0.0628603380 1.1430715964
-9.2086246301 0.0582315433 1.1309297846
-9.6461171123 0.0485796121 1.0825336775
-9.8646925696 0.0437804858 1.0599654771
-10.0827981668 0.0390465884 1.0414539435
-10.5176942334 0.0297616966 1.0155909687
-10.7349786294 0.0251424576 1.0040754626
-11.1708743675 0.0157272188 0.9703267716
-11.3885505554 0.0110577042 0.9558098443
-11.6047717528 0.0065828801 0.9531280600
-12.0334063575 -0.0018626301 0.9783410510
-12.2479174933 -0.0061147869 0.9891492107
-12.6805874464 -0.0151013762 0.9813987236
-12.8979403087 -0.0197284195 0.9694083374
-13.3397072946 -0.0298996263 0.8900581461
-14.8384559857 -0.1056948510 -2.3464233402
12.8576043173 0.7317898904 1.3937658392
12.6466688515 0.7285187852 1.4727763757
11.5704265394 0.7074328401 1.5484997014
10.7032613532 0.6892391485 1.5198113303
10.2711779803 0.6804435929 1.5256616786
9.1848723715 0.6572374674 1.4588353497
8.9685376606 0.6527794420 1.4577080389
8.3210983076 0.6396988033 1.4738123308
7.8874208154 0.6305811175 1.4580690472
6.5792265764 0.6019216525 1.3245528595
5.9338004509 0.5891889951 1.3634209603
5.5024358497 0.5804917707 1.3754864590
5.2864452377 0.5760855125 1.3777106257
4.2012306933 0.5531243738 1.3275197469
3.1221046635 0.5312062344 1.3456520794
2.9059023968 0.5267540295 1.3448027450
1.8267469982 0.5047907736 1.3595758492
1.6108431761 0.5003810208 1.3614509960
0.9595978244 0.4865774629 1.3294681614
0.5238023530 0.4771163495 1.2913859744
-0.7837551897 0.4487451351 1.1783413479
-1.4294781937 0.4358223034 1.2035393604
-1.8625335487 0.4268042097 1.1942684450
-3.1598216330 0.4000242052 1.1840564464
-3.8147055439 0.3857077924 1.1194090961
-4.2460316448 0.3769407442 1.1262545857
-4.4603192553 0.3727558297 1.1423351294
-5.5416526132 0.3503789245 1.1296996397
-6.4084868373 0.3322200971 1.1031106193
-6.8403976332 0.3233509917 1.1031945600
-7.9247444661 0.3005384669 1.0627488293
-8.1404910953 0.2961298402 1.0643987126
-8.7805565681 0.2838699198 1.1302935720
-9.2114724389 0.2751154052 1.1374083737
-10.5255209288 0.2460230665 0.9805937803
-11.1762835945 0.2323217776 0.9554768845
-11.6081226506 0.2234469663 0.9550282340
-12.9012846629 0.1971064087 0.9712028129
14.7605173703 0.9356221537 -2.6501305121
14.3655736551 0.9358890801 -2.0021808877
13.2555575460 0.9510812146 0.9350881395
13.0587458853 0.9508041608 1.2262258477
12.8537939612 0.9487677238 1.3943829023
12.6426519676 0.9454108680 1.4703520436
12.4282178614 0.9413592823 1.4978027910
11.9972309894 0.9328055958 1.5212357809
11.7814063295 0.9284550505 1.5278912947
11.5651347793 0.9240143860 1.5281547879
11.1317816012 0.9149659137 1.5171517371
10.9150954132 0.9104390055 1.5114973380
10.4823805555 0.9015155279 1.5090738568
10.2663384116 0.8971127834 1.5119991985
9.8331482802 0.8880906906 1.5027861964
9.6156354258 0.8834036914 1.4860440233
9.3980206018 0.8786994826 1.4680933635
8.9643373155 0.8695865918 1.4526246839
8.7483901265 0.8651970583 1.4564224705
8.3168907418 0.8564878186 1.4686378108
8.1005491658 0.8520208487 1.4670524534
7.8833503510 0.8473960032 1.4546534078
7.4464321297 0.8376941054 1.3987893396
7.2274755247 0.8327582979 1.3651282365
6.7914689472 0.8232386752 1.3219416638
6.5752369966 0.8187964342 1.3220687304
6.3600602286 0.8145396846 1.3348156235
5.9301616221 0.8060952869 1.3650528676
5.7143359451 0.8017156855 1.3694184058
5.2812897570 0.7927142316 1.3614911687
4.8473322649 0.7835556320 1.3429321635
4.4124383072 0.7742396998 1.3137560498
4.1954306883 0.7696577860 1.3042926495
3.7631612315 0.7607838499 1.3051163111
3.5473549218 0.7564014242 1.3091005958
3.3312938194 0.7519735364 1.3101172113
2.8983761936 0.7429865446 1.3031701160
2.6820292045 0.7385107767 1.3008823695
2.2510685769 0.7298357447 1.3149120158
2.0363574001 0.7256178350 1.3300058095
1.6060454926 0.7170326455 1.3500353579
1.3897928791 0.7125648138 1.3481773059
1.1729750009 0.7080069641 1.3402908697
0.7383451707 0.6987361010 1.3141590361
0.5202541398 0.6939820918 1.2931284895
-0.1359798351 0.6794302815 1.2108309179
-0.3541101412 0.6746792875 1.1900742137
-0.7882990538 0.6654941751 1.1698609382
-1.0042497199 0.6610740992 1.1712923753
-1.4354572576 0.6523355135 1.1808278670
-1.6517821263 0.6478578687 1.1783116339
-1.8685931516 0.6433064489 1.1709597011
-2.3004006493 0.6344708204 1.1739621865
-2.5146287412 0.6302966027 1.1916322373
-2.9445371626 0.6217291245 1.2123125779
-3.1624182315 0.6170189161 1.1943861145
-3.3817348940 0.6121046824 1.1628994384
-3.8190182530 0.6024763817 1.1133315930
-4.0355263117 0.5979689949 1.1088722024
-4.4652034535 0.5894240404 1.1309625805
-4.8946558198 0.5809025005 1.1545238969
-5.3276288336 0.5718837872 1.1452092145
-5.5446864991 0.5672949672 1.1353171759
-5.9780129113 0.5582267778 1.1227576173
-6.1945925710 0.5537046924 1.1172125850
-6.6286908780 0.5445313392 1.0977647862
-6.8456949877 0.5399509493 1.0884694240
-7.0622907157 0.5354265568 1.0828018920
-7.4955661931 0.5263652986 1.0707320860
-7.7126372740 0.5217771429 1.0609007859
-8.1451782752 0.5128139744 1.0551839862
-8.3597190384 0.5085597700 1.0671828071
-8.5732390937 0.5044375282 1.0877856506
-9.0003566332 0.4961769544 1.1276765025
-9.2160321202 0.4917654046 1.1293435189
-9.8750435822 0.4769829851 1.0336521509
-10.0960490123 0.4718888650 0.9910113324
-10.5341451418 0.4622140484 0.9390272074
-10.7508193780 0.4576801677 0.9328082416
-11.1823580198 0.4488413083 0.9351607215
-11.3977448652 0.4444691307 0.9393688084
-11.6123089493 0.4401994033 0.9501610216
-12.0395064485 0.4318938998 0.9868593971
-12.2538753803 0.4276430622 0.9987554214
-12.6871595706 0.4185718932 0.9859526384
-12.9054819570 0.4138306804 0.9662447034
-13.3497510216 0.4034186902 0.8671847236
-13.5914495320 0.3958337797 0.6649142533
-13.8650143381 0.3843965867 0.2155311688
-15.4505310622 0.3018065454 -3.6491582200
-15.7133291314 0.2919844569 -3.9908098135
14.5558652322 1.1538878752 -2.3747059075
13.9860891360 1.1583042988 -1.0789248167
13.8045033327 1.1613577226 -0.5337043584
13.6239369602 1.1645216650 0.0187157184
13.4408787256 1.1670718453 0.5259179839
5.0596151844 1.0048515352 1.3413765866
0.0787563800 0.9010881992 1.2349972464
-4.6845097550 0.8018719782 1.1342939335
-9.6600070837 0.6985771352 1.0566979558
14.9505119400 1.3737200420 -2.9760915265
14.7489441212 1.3727666257 -2.7090258625
13.2480999008 1.3855172188 0.9389970972
12.8461543147 1.3827031295 1.3953423713
12.6350638353 1.3792762058 1.4719873312
12.2040320634 1.3706830464 1.4953137218
11.9874659607 1.3661834474 1.4917231980
11.5550088532 1.3573082652 1.4938405081
10.9070511611 1.3441206996 1.5062397251
10.2562557797 1.3304035180 1.4792287040
9.8225899508 1.3212964174 1.4640198929
9.6054609098 1.3166896821 1.4525077681
9.1715370022 1.3075382201 1.4340562473
8.9553239406 1.3030942385 1.4345809486
8.5237486943 1.2943510353 1.4461999817
8.3076411418 1.2899224661 1.4477500420
7.8735704559 1.2807431510 1.4272340072
7.2197211890 1.2665175473 1.3629754634
6.5694880702 1.2529083579 1.3440692758
6.1391101705 1.2443447702 1.3686784122
5.9237445791 1.2400310888 1.3785513157
5.4906701890 1.2310176916 1.3701808870
5.2732698253 1.2263716284 1.3558684708
4.8379471438 1.2170014558 1.3214602643
4.1866959081 1.2032253060 1.2904232432
3.5377212814 1.1898067561 1.2852413889
3.1038319984 1.1806686273 1.2677982806
2.8871799304 1.1761434256 1.2623279413
2.4555054297 1.1673411698 1.2691202863
2.2404763981 1.1630590283 1.2811080715
1.8109262890 1.1545630387 1.3099506230
1.5958029773 1.1502605341 1.3203483917
1.1642955155 1.1414624204 1.3272821669
0.5113420579 1.1274314079 1.2777621816
-0.1437954192 1.1130985068 1.2067707475
-0.5793278072 1.1037280264 1.1727392131
-0.7969116717 1.0990691655 1.1576896132
-1.2302799935 1.0900082489 1.1458466048
-1.4462979932 1.0855710139 1.1465438803
-1.8783637577 1.0766896095 1.1474339274
-2.5218816989 1.0639871503 1.1927475178
-3.1698318955 1.0506647071 1.1938189787
-3.6090006587 1.0408123137 1.1258847303
-3.8273090320 1.0360617129 1.1043599549
-4.2595542352 1.0271449136 1.1026045683
-4.4745127582 1.0228393196 1.1124872197
