-34.27904892 29.45067787 23.27000046
-31.14976120 -33.60298920 20.60000038
-16.84153366 -34.59869385 32.53571320
40.45512009 -20.06374741 22.10000038
-33.74600983 -3.94684458 40.98636246
-43.26926804 10.72318554 24.11000061
33.20497131 21.74065590 31.54999924
10.76189613 -23.60065460 48.00000000
-49.14300919 -3.29696560 10.83235264
-48.00245285 10.00601006 12.23750019
-10.03145027 -18.59916115 45.86428452
1.22470891 41.83809280 28.54999924
10.96140862 -24.96767807 47.88333511
-24.17253685 -37.11306381 23.75000000
-14.71862507 -10.89216614 47.15000153
36.07252884 35.04864120 0.64999998
-16.23484230 -20.80264091 43.03571320
-11.37459373 -13.21067524 47.45000076
-26.62752151 25.26312447 35.15000153
47.93057632 13.37886047 7.40000010
-33.74459457 -17.33758545 33.22499847
11.15245914 -25.64753151 47.90000153
-7.23068666 -26.38905334 42.26428604
-42.04676437 5.06794977 43.59999847
-25.34854126 -13.13113403 41.62500000
43.49380875 11.44555759 22.76428604
37.38968658 -12.14597321 31.54999924
-49.68708801 5.14322567 7.40000010
12.50813866 -28.46221161 47.90000153
3.20566869 50.29898071 4.40000010
32.50867462 37.02256012 11.44999981
-26.79205894 18.52089882 38.95999908
-45.67055130 -3.27038789 21.33124924
12.41339111 25.42519379 42.08750153
-28.75259399 22.54089165 35.25000000
13.28384018 -29.72112274 47.91666794
-17.06789207 -34.30217361 32.70000076
8.36643696 39.00637817 31.25000000
-47.53804016 12.08128738 12.19999981
12.56900024 -11.69999981 47.45000076
49.61224747 -4.67175245 5.90000010
-12.23719025 36.20811081 33.34999847
-42.65434647 -24.25728607 10.76818180
13.62172031 -30.06170082 46.48333359
29.45358086 10.75485992 39.65000153
13.88181114 -30.53693771 47.91363525
21.54700089 -20.82500076 51.95000076
11.03352261 40.55329895 28.29999924
-14.83277321 47.60987854 8.72999954
-42.80006027 0.24922661 26.91363716
14.52058792 -31.33042145 47.88846207
-5.09993410 -37.80490112 32.75000000
-39.66967392 -11.14326096 29.14999962
-33.28444290 19.76696777 32.75000000
32.72476578 -3.32365775 38.29999924
-24.80620384 -42.75669479 8.02999973
-16.21103096 23.25189781 42.09285736
10.32188606 -48.55103302 6.61250019
-41.62121201 28.32321167 4.62500000
5.46805763 -29.92650604 40.09999847
-24.59207344 22.65341187 38.17499924
31.49081612 -35.55443573 15.84090900
30.53831673 -33.19915771 22.03571510
23.65383530 -13.08244324 42.53749847
-29.07103729 -36.47591019 18.64999962
-33.04907227 28.23320961 26.31153870
14.74191666 -31.77666664 47.86999893
7.63700008 3.75000000 49.84999847
-49.44800186 9.30000019 1.85000002
11.34300041 -26.85000038 46.54999924
-39.82865906 -29.69753265 7.37857151
-38.90180206 -25.95243073 18.54999924
15.43297863 -32.62064362 47.91666794
-42.81592178 5.81889343 26.29999924
22.57862663 -20.48417664 47.90000153
-0.90076500 19.94358063 46.65000153
25.02532196 -26.33406830 43.70000076
-18.42997932 31.35650635 35.45000076
-32.33696365 -38.13964081 3.79999995
-7.98357582 15.03923512 47.75000000
49.56263733 -3.35346317 7.41666651
-24.63554192 -13.04023170 42.11666489
-22.96146774 18.22112274 41.45000076
-12.01322269 39.43569946 29.72857094
-46.56761932 -11.71854401 15.19999981
40.44051361 37.30089951 20.60000038
47.72924423 4.48942232 15.22142887
-35.14686203 -6.86122084 47.28636551
-39.41941452 3.00995111 45.95000076
-23.23263359 -9.63815022 43.79999924
38.18472672 42.16725922 21.21666718
49.82756805 -5.39855957 3.22142863
-30.30210495 -6.81919909 40.33000183
-19.76735878 -20.78068733 41.52500153
45.28490067 19.79772758 9.50000000
-8.55340958 14.34959793 47.84999847
-27.98004913 -28.29792976 30.95000076
-7.17192602 42.40849304 26.93000031
-39.16183090 -23.44892311 21.22999954
-20.92099953 -22.64999962 39.95000076
45.14398956 21.84660339 3.79999995
-21.96093750 -32.14760590 32.01363754
-10.69556713 12.88193035 47.82500076
-38.19622040 5.87375307 46.84999847
23.68580437 19.18901634 40.45000076
19.44895935 32.99184036 33.20000076
12.50912762 -28.44729233 43.09999847
-38.53251266 8.63644981 31.74090958
49.33368683 -11.00157928 0.94999999
-18.50759315 15.14418507 44.75000000
-7.12841606 28.60724068 41.45000076
-14.75314999 -29.70855904 37.93571472
14.57192326 19.78472328 44.27857208
3.37976003 -35.96276855 35.15000153
26.92099953 -38.07699966 18.42499924
31.31897545 -36.08110428 15.02142811
-14.14955235 23.48427582 42.65000153
4.76364899 32.03763199 39.04999924
-13.55240822 4.43073130 48.65000153
-13.24632645 10.73789310 47.75000000
35.70507813 31.77548981 16.98333359
-15.63606930 47.96135330 3.79999995
-34.68465042 33.40134048 15.85000038
-18.28963661 18.36232758 43.62500000
-50.26018524 -2.49577975 3.17857146
-25.76964569 -21.28638840 37.84999847
27.15543556 -3.90262437 42.40000153
-0.14648631 42.07917023 28.35909081
-10.02264977 13.62393856 47.75000000
-31.63680267 39.40299988 3.18636370
35.04219437 -26.48268318 24.29000092
-14.87558651 -29.16279411 38.27500153
-36.07076263 -8.94381237 34.25000000
-41.01688766 1.00187230 44.75000000
-33.89673996 -34.94021225 12.21666622
-13.57157612 10.19093132 47.75000000
24.88413048 -27.21685791 38.90000153
-14.19237423 9.33955193 47.75000000
-36.52410889 -8.18181229 33.99615479
-49.12368393 7.18573856 9.50000000
-27.46599770 -11.01217079 41.01363754
-27.34543991 -40.93497467 9.48333359
-37.07233429 7.28809214 47.75000000
-41.83895874 19.61267281 21.14999962
5.98565912 10.44043159 49.25000000
-28.60600090 34.98400116 23.14999962
27.93848419 39.62158966 14.32999992
-26.07105637 16.26210022 40.34000015
-37.15124512 3.70482564 47.75000000
36.77513123 -31.15070152 13.66250038
-0.95624405 20.50680351 46.45000076
8.44999981 47.42900085 15.25000000
-39.55498505 -30.68562126 3.79999995
-20.38842010 -29.03604698 35.81666565
-2.24253273 41.26933289 29.45000076
-37.91623306 -3.33763933 47.29999924
-46.13032532 20.44993973 2.45000005
-22.33286858 11.30493450 44.15000153
14.63997746 -40.53866959 25.75000000
-41.04679871 -19.63363266 21.64999962
-30.10101891 20.97368050 35.15000153
-37.17019653 1.67994046 47.82500076
-29.38107109 27.46667862 31.03571510
33.07683945 6.65208626 37.54999924
-14.15195370 -32.01619720 36.21363449
-49.27526855 0.90987962 10.85000038
-37.15959930 -3.32966065 47.82500076
4.76200342 -35.53944397 35.33000183
-44.22369385 9.32357216 22.71363640
-5.16187954 -44.90127945 21.64999962
-47.57242584 -7.47381735 15.02999973
3.91876197 33.58375549 37.84999847
-40.73274231 25.42782974 16.39999962
40.33757401 -8.13510418 29.01363564
-40.41820908 3.64992905 45.04999924
-16.95725441 44.34252167 17.87857056
-37.35574341 6.80873108 43.54999924
-19.11681175 -8.84353161 45.95000076
-44.48846817 17.79550552 16.45000076
-40.08481216 5.81458426 45.34999847
-37.98030853 6.04194593 37.37857056
29.90482903 -13.76995277 38.19285583
-14.18982792 -8.83746529 47.75000000
-35.91387939 7.47208500 47.25000000
21.56955910 19.14792442 41.59999847
30.50245476 -8.05355835 39.34999847
-13.50721645 -47.60197067 7.40000010
-29.82133293 14.44666672 38.45000076
-15.22099972 -13.64999962 46.25000000
-15.01718044 -1.19819248 48.34999847
-20.31305122 28.69836426 36.65000153
32.15000153 39.86999893 22.14999962
48.56106949 12.79897881 1.73000002
-16.44885635 -18.88408279 43.84999847
27.99253464 28.37948608 31.16428566
33.32280731 0.30899897 37.96250153
-35.18910217 -14.46985817 33.22999954
-2.24582291 -48.54780579 12.14999962
-13.28043842 15.98329639 46.25000000
-13.90775776 -9.42337132 47.75000000
6.17849159 44.83245468 22.72500038
-26.69859886 21.85558701 37.37857056
-9.34730530 26.08919334 42.53749847
21.32900047 45.45000076 6.65000010
49.00130844 8.64312172 7.40000010
-12.62842846 -10.90707588 47.75000000
-18.45000076 -46.26800156 0.94999999
10.79787445 47.49671555 13.69999981
42.76957321 26.22237206 4.55000019
-15.53423119 -8.16076565 47.45000076
-25.45979500 37.53436279 22.75000000
-34.04999924 -36.46400070 3.95000005
-21.92969322 37.46551132 26.33749962
-39.75185776 -7.48995876 30.35000038
-11.26077652 -12.29727364 47.75000000
-33.25092697 -30.11868668 22.77499962
46.76179123 -14.47400761 10.85000038
4.80146027 17.00037575 47.45000076
-37.62200165 -2.25000000 43.25000000
-10.45611858 -12.94275188 47.75000000
-32.31744003 38.83148575 1.13750005
25.73879814 -24.27318192 35.79999924
45.55880737 -14.50335026 15.14999962
-27.35227203 34.44454193 25.42142868
23.25000000 25.52599907 36.95000076
45.52697372 -20.75797462 1.71666670
-40.57923889 29.41009521 7.36999989
14.87964821 -30.30447578 38.90000153
-46.51133347 12.90580845 15.11666679
-34.40756989 37.08739471 2.37500000
-9.91356850 -13.32361317 47.75000000
-33.06044388 -3.99369383 38.17727280
34.35581970 -2.58808494 36.95000076
-9.27702427 -13.70235538 47.75000000
43.66746521 30.71868706 29.00000000
28.55918694 19.81995392 36.83000183
9.64661980 34.02839279 36.29000092
11.17899990 -20.85000038 47.75000000
-36.63802719 -5.49503136 47.26250076
10.94213104 24.57560539 42.95000076
32.23286438 36.13314438 14.33749962
-45.12039185 18.45063972 13.69999981
-35.93103027 -24.27080345 25.62058830
-9.87915802 14.89500999 47.45000076
-29.03754616 33.33500290 24.88999939
33.86193085 20.92187500 31.54999924
20.57822227 43.27634811 16.25000000
30.14152718 38.92684555 10.89285755
-42.13083649 -26.43306541 0.94999999
-0.88062805 16.18443108 48.04999924
20.07122612 39.79950333 24.04999924
10.75509739 -22.09263611 47.45000076
-36.11259842 9.54534721 34.25000000
23.02430534 36.09335709 26.93750000
-14.21669865 -12.49427605 46.84999847
40.08499908 -25.04999924 16.54999924
10.58800030 -24.14999962 47.75000000
-26.60379791 12.11580467 41.45000076
30.82114029 38.26738739 11.63000011
-14.88994980 38.86140823 29.07500076
-33.70750046 -14.48089790 34.67499924
-38.76520538 -12.36293507 29.89999962
-7.82601023 -21.36898994 45.04999924
-37.05178833 15.52786922 31.02499962
18.54570007 -32.20398331 35.29999924
-31.35000038 3.42100000 48.65000153
36.68418503 -16.49767113 30.35000038
9.99699974 -21.75000000 46.25000000
45.61831284 19.25631332 8.81666660
-31.75215530 38.82560730 7.41666651
-12.09137535 13.00239468 47.45000076
-13.43231869 -34.72492981 33.85769272
13.36703587 -29.64068604 43.13000107
-44.54000092 20.85000038 11.75000000
-41.72412872 4.49647808 43.84999847
-29.55800247 -16.58367920 37.40000153
-13.59462547 11.52007771 47.45000076
44.32699966 22.35000038 8.44999981
-35.06801605 -25.64517975 25.51666641
-15.34565067 14.02150440 46.25000000
25.48907852 4.84580278 43.54999924
23.75088310 20.60626793 39.61249924
-15.13234520 9.49515629 47.45000076
9.64322567 41.76347733 27.04999924
23.00738335 7.22432280 44.45000076
-15.31147861 9.10886860 47.45000076
-46.11118698 -20.06364441 1.25000000
-30.75960541 -39.43057251 3.82999992
19.04999924 18.04700089 43.25000000
-37.40230179 5.87057114 47.45000076
31.17192459 26.00559998 30.35000038
-37.82338715 0.90751278 47.33000183
28.63648415 -35.52203369 39.52999878
-9.91028500 43.50164413 24.21363640
-44.23522568 -18.65555382 15.05000019
-19.66884995 26.10756874 38.84000015
-37.03875732 -4.38468838 45.84999847
18.27947998 1.65416086 47.15000153
46.87559128 -5.41912174 17.16764641
27.72892189 -39.37834167 13.64999962
-37.87065506 0.25668338 47.28636551
-5.74199486 46.24103546 19.96999931
-36.69389343 13.15713596 32.15000153
-37.85944748 -1.17374742 47.31363678
-39.52454376 -4.73020172 31.14999962
-48.03664398 -13.81623840 5.32999992
-21.18725204 25.54029083 38.41249847
-41.84755707 1.47483337 44.15000153
-10.58253193 39.93313599 29.56999969
-37.88743210 -1.86286235 47.28636551
47.14154434 16.90358543 4.34999990
-42.81531143 -22.20252800 14.30000019
15.86817074 44.08526993 19.10000038
-40.94315720 5.80761433 29.14999962
-37.91735840 -2.55917811 47.28636551
26.49683571 -35.62590790 35.84999847
-33.80317307 -26.46110344 26.32500076
44.19858551 12.82985687 20.61666679
-41.55477142 5.03455067 37.34999847
-9.74116898 -17.84792900 46.25000000
-7.05934334 22.39816475 45.04999924
-11.31529045 24.99695015 42.65000153
-5.07053518 49.91656876 6.63235283
-46.72956085 -3.91262579 18.95000076
12.21706486 -27.14798164 49.97000122
-30.29738998 26.22938538 31.15999985
-20.33453560 16.19932175 43.54999924
-30.93298149 -6.78190279 39.51363754
15.18270493 40.58723831 26.20999908
13.98369694 -30.50019455 45.79999924
-34.67244720 -23.73001480 27.83749962
-43.74567032 -18.67148209 16.42142868
-37.87720490 -3.96260118 47.32143021
-5.06408644 33.92184830 37.47499847
-32.40845108 26.17391586 29.02499962
-41.02774048 -15.41125107 24.95000076
43.55212021 17.14386940 18.64999962
-11.97725105 28.22895813 40.45000076
-35.54999924 18.21500015 31.54999924
33.46164322 37.38932800 5.30999994
-43.63883209 -1.19339025 25.51250076
30.53947067 28.07440567 28.96249962
40.92800140 30.75000000 19.54999924
-36.40913010 -5.91797829 47.34999847
21.73181915 -37.13969803 25.85000038
-11.93415546 33.05112457 36.72499847
44.14418411 -17.37001419 16.41666603
-26.78380775 31.13377762 29.88846207
32.69372177 18.41955566 33.88571548
-17.76769066 -28.67804337 37.46428680
-46.58971786 19.22170830 3.20000005
-35.64065552 -6.52281904 47.33000183
25.31579971 -31.45841026 30.04999924
-7.11655951 16.47933388 47.45000076
-24.66058159 34.61032867 27.75714302
-20.21299934 -23.25000000 39.95000076
-29.92849922 -40.04999924 4.40000010
11.71025562 -27.11914253 47.29999924
25.78825760 -41.10563660 12.19999981
-47.46075821 10.02102566 14.30000019
-27.47941780 8.01842594 42.37142944
10.32506371 48.98782730 6.59999990
-0.17386286 10.74128342 49.54999924
-24.40463829 -37.32741547 23.29999924
-34.50487137 -7.58101368 47.29999924
-15.47707653 -8.79923916 47.33000183
-28.78515244 -24.84399414 33.12500000
-39.17615509 -7.47894335 31.08333397
-47.45110703 6.93388891 16.25000000
13.02700043 -19.04999924 47.15000153
-18.96920013 -1.99863732 46.84999847
-23.33543968 -24.32890320 37.49000168
-33.93164063 37.49238968 1.07000005
-48.66078186 -1.91231453 13.00000000
-47.38999939 -16.35000038 4.25000000
3.29194331 47.74753189 16.41363716
-9.61304379 -24.72073174 42.95000076
8.21202755 45.52957916 20.58333397
30.02314568 -27.09700394 29.88846207
-14.70098019 -9.53511333 47.45000076
-13.48654366 45.53000641 17.87000084
-35.28558731 -7.53672171 35.45000076
31.14003181 -5.36063623 39.34999847
-39.46025085 -0.68736261 43.65000153
13.16332150 -43.77026367 20.60000038
-20.41218185 -13.03935623 44.33750153
-49.28567886 -0.44997782 10.85000038
-20.13500023 -27.45000076 37.25000000
-15.62242031 -11.75212860 46.59999847
-34.37453461 -6.67433167 45.83750153
-19.58429909 -30.34854317 35.15000153
-38.68182373 20.55323029 25.60294151
-47.36600113 10.94999981 13.85000038
-38.21794891 31.32885742 10.92500019
-18.34387970 -17.31003952 43.73749924
-49.24700165 9.14999962 0.94999999
-49.53427887 -1.83411741 9.47000027
-16.16419220 -37.42004395 29.56250000
17.35440826 25.88629913 39.95000076
49.36161041 -3.21795416 8.64090919
32.35003281 -36.44220352 11.05000019
-38.68910217 32.44856262 1.13000000
-24.55446815 -43.63140106 1.07857144
-14.95013618 -10.25600147 47.20000076
20.54999924 -35.24300003 29.45000076
-14.11334610 -10.94415379 47.33000183
-13.58745575 -11.03842258 47.45000076
-5.06740713 16.26017761 47.75000000
-13.26835251 -11.53931522 47.45000076
-38.82538223 24.02238464 22.11666679
18.93493462 -8.83619976 45.95000076
-32.50420380 -19.48164940 33.27500153
-4.36349535 15.67549419 48.04999924
21.45836639 -30.39438438 47.15000153
-30.82538605 -3.21328545 45.25000000
-14.15886402 -23.54965782 42.26428604
23.67131615 -26.40187454 48.65000153
-16.86941528 -8.90870857 46.81250000
-9.25588894 26.79569626 42.12500000
-12.08591938 -13.01836014 47.34999847
11.73683739 -36.05910110 33.13571548
-22.43605995 -26.32341003 36.65000153
17.27521133 27.55477524 38.84999847
-22.53832245 -7.61836863 44.65000153
11.15111542 11.47182083 48.04999924
-10.64929485 -13.80328751 47.45000076
-5.06995201 40.25109863 30.50000000
-9.88590527 -14.38452244 47.45000076
-36.35355759 26.67217255 23.26250076
5.81807470 9.00005531 49.54999924
25.11616898 -10.25447178 42.59000015
20.79530716 -18.63091660 47.33000183
23.12509727 43.17711639 12.22999954
-14.99978733 -47.62924576 2.52500010
29.59489441 -39.98936462 4.69999981
28.85000038 -28.04999924 30.04999924
-29.30680275 -12.12995529 39.34999847
11.02780533 -26.39058685 44.48333359
-28.28027725 -32.16773605 26.39999962
32.12687302 12.83574200 36.83750153
27.02804375 29.52112389 31.04000092
-48.40444946 -8.08452988 11.60000038
-9.30850315 -15.31821060 47.22499847
25.72760201 -26.38759232 47.87857056
46.03557968 27.49423409 21.53000069
-40.05795288 6.27114916 41.01666641
-43.07352829 17.73646164 20.04999924
23.85000038 21.43700027 39.04999924
-30.91091919 -7.46273232 42.38750076
-2.92368388 47.10067749 18.50000000
-23.94597626 -24.91726875 36.75000000
-20.37688828 -34.01935959 31.07500076
11.17843056 45.96709061 17.98999977
-33.95090866 19.90648079 32.06428528
21.56361771 -43.06994629 13.68333340
-17.75686455 7.99879169 46.84999847
-34.17024612 -13.76883507 34.54999924
-7.84955597 -15.44485760 47.45000076
46.41802597 22.94915009 21.95000076
-48.82813263 3.01195455 12.75000000
-18.75185204 -32.52714157 33.65000153
-4.21577072 38.42276764 33.04999924
-5.86686516 11.59442997 48.95000076
-21.95035362 12.86468124 43.84999847
27.89638329 20.54973602 36.86000061
-11.30672646 -20.81697845 44.53571320
-38.01272583 15.63619518 29.77142906
45.17918777 21.86755180 3.20000005
-7.73649979 -15.97000027 47.29999924
-24.37400055 -24.75000000 36.65000153
-32.79063416 26.58671761 28.25000000
23.81192207 4.43230820 44.45000076
11.56449986 -20.54999924 47.29999924
-15.48316956 43.44734955 21.20000076
-21.91926193 21.30846405 40.50714111
49.06261063 0.24592221 10.86874962
-20.01199913 18.75000000 42.65000153
43.44613266 -9.59434700 23.53571510
-34.34798050 -15.11514091 33.81363678
-31.99941063 12.69539547 37.25000000
42.75255966 -6.77883530 25.70000076
-19.14564705 10.72483158 45.73571396
34.25846481 35.98060226 8.76764679
-3.61770320 -43.43976212 24.83749962
-21.05949211 -37.98791885 25.30999947
23.65824127 -42.32455063 12.19999981
11.18200016 -20.85000038 47.29999924
-43.75693130 -24.29056168 3.82142854
-10.54229832 -25.60081100 42.11000061
-7.82429504 -45.31239319 20.01363564
-38.17348480 13.01488686 30.54999924
-27.86441803 -31.04740715 28.25000000
10.86777496 -21.40353012 47.32143021
10.49411011 -22.19562340 47.20999908
-24.61733055 43.56148148 8.00000000
-33.01012421 7.03804398 41.00000000
-9.82915688 6.52608204 49.25000000
-31.83259010 31.24629021 24.25000000
6.93285465 19.65106583 46.25000000
34.96484756 -1.15448296 36.34999847
22.02599907 -19.64999962 44.45000076
-36.41826248 31.60637093 15.77000046
23.43888283 44.11708832 7.94999981
10.49020481 -22.84937096 47.29999924
11.09983540 40.89803696 27.74230766
10.53513336 -24.26608467 47.25000000
0.56350136 38.87963104 32.59999847
3.31004858 -28.43037033 41.49285889
-39.80639648 -6.73340893 30.38750076
10.86240387 -25.02063179 47.32143021
-5.08395338 26.09169579 43.25000000
-40.70469284 2.42604303 40.33181763
11.25293159 -26.38083649 47.27857208
-0.12128471 -47.13283920 17.01153755
40.81100082 25.95000076 14.75000000
-42.40250015 25.04999924 11.60000038
-3.67134619 -30.84437370 39.65000153
-37.05492020 -27.56469917 19.93571472
29.06789207 37.74394608 17.19285774
-39.57781601 -3.97095132 31.25000000
11.86095142 -27.71027374 45.20000076
-17.10123444 -20.82378578 42.65000153
25.35000038 37.61600113 22.25000000
-21.82777596 26.72636223 37.25000000
-39.23445511 4.44783211 31.70000076
11.34700012 -26.85000038 47.29999924
16.60219955 15.62064648 45.25000000
36.75000000 21.19099998 27.04999924
-15.52928066 -45.02216339 15.71000004
31.22624207 13.51348686 37.32500076
-12.82448101 20.03147697 44.75000000
1.99910700 -37.37569427 33.65000153
12.48748112 -28.48029709 47.29999924
-22.57512665 15.60411453 42.65000153
-39.38212204 6.91185141 44.75000000
-8.58617592 49.41637039 6.66499996
12.69796848 -29.03428459 47.22499847
13.00840664 -29.24104881 47.33750153
13.31286144 -29.79538155 47.28636551
-30.32774353 -39.79599380 1.07857144
-19.05775070 45.15299606 12.96764660
6.96570873 -47.69506073 13.25000000
-42.77319717 6.52603245 26.28636360
-46.30664063 19.15804672 6.62692308
-13.46929455 -22.76161766 42.95000076
-30.26691628 0.08943771 45.95000076
47.21642685 -4.67542315 16.39999962
-48.77450180 12.44999981 3.20000005
-30.45162582 40.25417328 3.79999995
22.37581444 -4.64030313 45.04999924
13.85407829 -30.50338554 47.29999924
48.54252625 5.76327372 12.19999981
-24.76248169 36.06281281 25.71666718
-38.99000168 22.95000076 22.85000038
-14.80883121 -22.89086914 42.41666794
-22.45140648 26.10773849 37.31666565
14.12049961 -31.04999924 47.29999924
-26.59576797 25.93381882 34.62500000
14.55735970 -31.27865982 47.28845978
14.75578213 -31.72219658 47.37500000
20.84138680 -42.36382294 17.09000015
-9.27330875 -44.90980530 20.04999924
-15.76241684 17.85296440 44.75000000
36.42317581 -3.37429810 34.76428604
1.21116936 42.65714264 27.39999962
19.36271477 46.14112091 7.96999979
15.47207642 -32.54097366 47.32143021
16.06191635 -33.31742477 47.31666565
-34.25263596 -10.20184803 35.75000000
-45.23645020 -20.84126472 0.94999999
-5.70197248 31.62976265 39.34999847
-38.30597305 -3.97166491 47.15000153
-40.17849350 2.26127005 40.13000107
-39.77740479 -22.61855507 21.04999924
-18.11890411 39.79314041 26.14999962
-7.74300718 16.29812050 47.38999939
-30.71899986 -22.64999962 33.04999924
-8.62645149 16.38997459 47.15000153
1.20929694 49.49688721 10.10000038
-38.03728485 -1.85244858 33.21363449
29.03296089 6.53633213 40.84999847
-11.36357212 19.00794792 45.65000153
-21.95995903 -13.88975334 43.25000000
-30.07626724 -19.98600006 35.23571396
31.84176064 -33.76215744 18.95000076
15.86227322 39.93844604 26.85000038
-20.61845398 9.26563931 45.34999847
-9.28627300 15.42523003 47.37500000
-30.07254410 4.31052303 47.15000153
40.66785812 24.90911865 16.45000076
-28.35000038 -28.76000023 30.04999924
-28.11685562 18.44332504 38.00000000
-28.78179932 -33.97910309 23.37000084
16.76300049 -15.30000019 45.04999924
-13.05000019 -47.71699905 7.40000010
-15.63589001 -41.38021469 23.75000000
17.43060493 -34.02286530 45.24090958
25.25888252 29.83114052 32.15000153
-21.14803314 -14.41265297 43.54999924
34.15300369 12.12042522 35.32143021
-32.51889038 -4.84582901 40.90999985
43.78808212 24.69605827 2.42857146
-38.13115311 6.47375345 32.75000000
44.28821945 22.01435471 9.05000019
4.75337696 -30.34725761 39.95000076
42.46821594 33.86423492 26.88333321
-9.98090553 15.68064499 47.15000153
-46.12210464 -17.24422073 10.10000038
18.65970612 28.04561234 37.84999847
-32.39931107 -15.90194035 35.31363678
-36.53757477 -2.53022432 42.36999893
-30.42939377 28.36973190 29.14999962
-48.34306717 10.03367424 10.85000038
-39.57627106 -18.82609940 24.87500000
-10.56624985 14.84274960 47.29999924
6.44976044 36.22000885 34.84999847
-33.48199844 -35.25000000 12.64999962
-15.61656857 -20.82855225 43.25000000
9.00964928 41.51715851 27.64999962
-40.13368988 2.94485664 45.34999847
-26.58923149 32.22114563 28.90999985
31.48972130 -33.49385071 20.03000069
-11.97453117 14.29757595 47.15000153
-18.37994194 31.95324135 34.84999847
-25.30175400 -38.14700317 20.60000038
34.26665115 36.77658463 3.79999995
-12.81497192 13.48285675 47.15000153
-13.42802048 12.87670803 47.15000153
-39.13426208 8.61318684 31.00000000
-6.49454403 19.85714722 46.25000000
-42.60936356 16.29892731 22.06250000
-23.05821800 11.98387051 43.54999924
-14.89757824 11.35612297 47.15000153
-15.59390736 26.25245857 40.54999924
-14.84543991 10.72806263 47.29999924
-16.98160362 -23.73352432 41.10714340
-15.35762882 10.61667633 47.15000153
44.26575851 -9.79257393 21.64999962
28.07097626 39.69654083 13.77499962
-17.70148468 -26.52290154 39.04999924
-42.03270340 4.40208387 43.59999847
-15.64715195 9.99005318 47.15000153
9.03913307 -23.44778252 44.29999924
20.39728737 -32.87018204 45.95000076
-43.82115555 3.73987389 24.95000076
30.54304695 -39.45001221 3.17857146
13.21617889 -42.06613541 23.75000000
6.86854696 36.47480774 34.59285736
-47.12524796 -9.60669518 15.05000019
-16.32058525 11.42122841 46.65000153
46.79743576 31.03201103 22.70000076
9.92643356 -24.22513199 45.12500000
20.79092789 -33.23481750 31.66250038
-45.79134369 20.53235817 5.91363621
-37.88395691 7.22361565 47.15000153
-33.23899841 27.14999962 27.04999924
47.36563873 24.07521629 25.54999924
-36.24205017 21.60494041 28.25000000
-31.57176781 23.96401787 31.72500038
-19.65039063 -17.94456863 42.95000076
-37.87061691 6.61105013 47.20000076
38.18084717 30.85777283 11.60000038
39.48186493 17.03276062 26.75000000
-37.83311844 5.12699318 47.15000153
-39.78210068 7.92295218 30.35000038
-24.64179993 -8.89904213 43.25000000
-7.77851295 -16.31115341 47.15000153
-37.85042953 3.70303202 47.21666718
-18.29441833 -19.18302917 42.95000076
22.49382591 -14.59638405 42.65000153
48.67131805 25.99502373 25.45000076
-43.46987152 -22.83320808 10.80384636
-41.67410278 -16.69420052 22.77499962
13.15807247 -38.29989243 29.79615402
32.15885925 6.52673864 38.37500000
49.45590591 8.64217854 2.45000005
-39.98009491 -29.13369370 8.72857189
-35.85277557 -6.12177992 47.29999924
-33.14073181 36.72311401 10.95909119
-43.14199829 23.54999924 11.75000000
46.59513855 -17.99964142 3.79999995
-45.37051392 -6.73544168 21.12500000
-16.02886200 -8.82686615 47.15000153
7.51870251 48.63676071 11.60000038
4.04870892 -30.82316399 39.65000153
-38.55541992 24.62440491 22.05909157
-9.86644077 -31.24842262 38.24000168
-15.57617378 -9.58789539 47.15000153
-35.59594727 -24.14409447 26.20999908
4.81296253 49.41957855 9.52142811
-16.96875381 39.58527756 26.91363716
-15.33320332 -10.01505280 47.15000153
25.91842461 -7.44444895 42.65000153
-39.25942993 -2.56653929 46.34999847
-14.10584354 -11.67728424 47.15000153
-28.95857048 19.26794052 36.95000076
-13.93099976 -12.14999962 47.15000153
15.89585209 17.70790291 44.70000076
-17.54932785 25.94484138 39.95000076
2.64185739 19.18462181 46.84999847
27.85023880 -34.06644440 38.15000153
-39.75199890 1.95000005 39.65000153
-13.48666191 -12.37816429 47.15000153
-32.75472260 -18.46829987 33.65000153
-7.82961416 49.42497253 7.40000010
30.00340080 21.25816727 34.72999954
0.56434989 40.97227478 29.89999962
-38.11474609 2.98615623 33.18333435
42.71600342 -25.01308823 7.41363621
10.20681858 -22.86424637 46.61666489
14.54761887 42.81716919 22.71363640
-48.38680267 12.85621071 6.65000010
14.49974823 -29.17769814 50.72272873
-10.67167473 17.06305885 46.54999924
26.50976944 36.79529190 22.75000000
-21.77382088 -40.97247314 19.14999962
39.79483032 -29.86019135 5.30000019
-37.37627411 -33.30686951 3.20000005
-9.86777020 -25.63947487 42.25000000
-41.23937988 -17.22482681 23.33461571
29.41874123 24.11304092 33.30714417
-36.60946655 33.10036469 11.60000038
-45.14736557 19.24695587 12.25000000
37.78372955 -6.81912374 32.65999985
-13.24699974 -12.75000000 47.15000153
-18.99730110 23.29562569 40.89285660
-11.33201027 15.69606400 46.84999847
-31.35000038 8.24300003 39.34999847
48.08776093 12.80446053 7.40000010
-26.38639641 41.02350616 13.85000038
-34.50572968 24.83231735 27.79999924
-30.80313873 27.48475647 29.58333397
-13.32890415 45.42847824 18.45000076
-31.15958595 8.70683861 39.04999924
-22.48636627 -32.60549927 31.06999969
-30.18148041 10.01035118 39.48333359
10.22405720 46.07437134 18.35000038
-12.04363060 -13.71081543 47.15000153
45.79999924 32.84999847 22.25000000
-11.39403439 -14.29195786 47.15000153
43.34758377 33.93327332 21.25000000
-42.21805573 1.58401859 43.74090958
43.29958344 26.75384521 20.04999924
47.45877457 16.33036232 2.46764708
-40.90610123 -25.79333305 13.73750019
1.98775363 -41.03136444 28.97500038
-26.12211800 14.25086212 41.10714340
23.38713837 -12.16813946 42.95000076
26.14816093 -25.42696381 34.54999924
-46.23370743 -16.50246620 10.85000038
-10.48060989 -14.91853333 47.15000153
-39.07750320 28.69644547 14.96428585
-9.92568302 -15.21816730 47.15000153
-39.65343094 -21.69231987 22.25000000
-30.94203568 7.34397936 40.22692490
-5.15000010 -49.09700012 8.05000019
9.71456909 39.65385437 30.04999924
-9.18491936 -15.68095016 47.15000153
-36.26679230 -2.53899670 35.15000153
20.54940987 0.29754961 46.25000000
-33.74950027 6.80873108 40.84999847
-23.88075447 33.73872757 29.54999924
-7.14640903 -16.61021233 47.15000153
-7.89621449 22.59229279 44.75000000
-22.50209618 26.78056335 36.77500153
-17.79719543 9.31348324 46.54999924
24.42987061 3.03041673 44.15000153
-33.05246735 13.52652645 36.00714111
-39.90454102 -21.40232658 22.04999924
-22.50916862 -40.17047501 19.96999931
10.52200031 -21.75000000 47.15000153
13.83378315 37.16354370 31.66250038
-12.86934948 27.68644524 40.54999924
-19.00548172 27.53878975 38.20454407
15.83241177 -32.78215408 47.23571396
9.21784401 27.05673409 41.75000000
-30.34522247 -20.18208694 34.84999847
40.32530212 -12.31372070 27.46999931
-31.92200089 27.14999962 28.54999924
16.66260910 -33.84757996 47.20000076
-39.58816147 -30.69646454 2.45000005
-28.85832405 18.47123528 37.45999908
-14.49215317 -4.52194786 48.34999847
13.33612061 -29.67981339 43.70000076
23.38520432 -21.75757599 46.62500000
-41.57857513 -9.57336330 26.89999962
-15.58780384 -31.82938766 35.82500076
-37.29174805 17.08193016 29.88636398
6.14707184 42.09687042 27.59705925
-32.32360077 7.96362114 38.27500153
-18.88048363 -10.79522514 45.65000153
-49.05217743 -9.57569695 5.90000010
-32.29709244 -4.65732765 38.90000153
22.77904892 39.87383652 21.22142792
20.81458855 -45.09638977 6.60384607
-8.68011856 17.23526001 46.84999847
-12.68233109 29.50471115 39.34999847
-43.92971420 7.65513802 24.04999924
-24.39800072 -16.95000076 40.84999847
2.66149998 49.42320251 10.12142849
-21.14003754 -42.61103439 15.81153870
12.68652153 -28.97148132 44.45000076
23.68899918 -29.88843918 46.45999908
32.68453598 37.97473907 5.90000010
-9.35299969 16.64999962 46.84999847
-38.38448334 -24.83410263 21.11000061
9.42443180 48.20351410 12.05000019
-16.89448929 41.50234222 24.16250038
-37.06748962 30.84152603 15.77857113
16.88722229 -33.12083435 43.70000076
-43.20422363 -7.49533176 25.25000000
6.87663937 48.59639359 12.19999981
-14.14297199 -45.23983765 16.38333321
28.20800018 -28.04999924 30.64999962
-38.76920700 -31.33536530 5.90000010
31.07799911 -6.56890774 39.34999847
-28.12949753 14.96219349 39.48333359
-29.59628868 -38.33750534 12.99285698
-10.62293053 16.24107552 46.84999847
-43.29825974 -25.40946198 1.62500000
-12.12297058 15.07450962 46.84999847
-33.67428207 -29.17998123 23.43333244
-10.61899090 49.18338776 5.30000019
38.59384155 31.98011208 5.34999990
-15.62702751 35.52430344 32.75000000
33.63494873 -13.24623108 34.84999847
-20.45964241 -18.00271606 42.51666641
-20.43992233 -37.63444519 26.31363678
-41.22928238 1.92531812 41.65000153
-16.19399452 -40.21716309 25.43000031
15.89321613 37.28616333 30.48636436
30.14999962 31.98200035 24.95000076
20.84071350 -18.82539940 47.90000153
-12.86607075 30.54836655 38.45000076
32.55186462 7.91346693 37.84999847
21.47452927 -26.89350319 49.25000000
-12.52344418 18.21883583 45.65000153
27.59537315 40.59014893 12.19999981
-1.04999995 -9.85099983 49.54999924
21.24549294 -18.81081009 47.25000000
-12.86914635 14.50212097 46.84999847
-34.38427353 21.85121536 30.48846245
-37.19692612 0.31553125 38.93000031
33.93783569 3.75543427 37.25000000
-11.29264641 -42.22943878 24.70999908
7.54999161 47.02477264 17.14999962
-44.36097717 -22.88475227 5.31666660
-12.73813057 26.10389519 41.63000107
-35.65552139 -6.76335764 35.19285583
-32.21645355 22.45866585 32.45000076
-33.65006256 -31.22126770 20.57500076
1.21741545 19.89695549 46.59999847
-37.91423416 -4.02273512 46.52999878
-20.46927452 26.14668083 38.37500000
-29.97295570 -33.15594864 23.14999962
-25.96852303 26.64073563 34.54999924
30.00300980 -3.94379830 40.40000153
-46.29041290 10.01774502 17.88333321
33.66986084 36.80205154 7.42999983
-13.33904457 14.07638741 46.84999847
-15.51177788 -23.69768715 41.75000000
-12.52283001 -26.80275345 40.84999847
25.24508095 39.63887024 18.59000015
18.07869148 -34.73266220 45.20000076
-20.35426521 26.79555702 37.98636246
-5.71943951 -47.84179306 13.69999981
-39.14249039 -9.55313587 30.43571472
-13.64822483 13.63655758 46.84999847
4.78417921 36.04889679 35.37500000
34.58766556 -3.15312576 36.65000153
-14.33645058 13.05825615 46.84999847
-29.56595421 -27.06124306 30.52499962
-7.10783720 -48.47358322 10.55000019
-15.64329147 38.93330765 28.54999924
-38.92057037 -31.49595070 2.45000005
-18.31083870 -38.32915115 26.88636398
37.62391281 -29.82774544 14.26538467
-14.81815147 15.58299446 45.95000076
28.46414375 -22.08416367 35.15000153
-28.80957603 -20.69318199 35.85909271
34.38916016 13.61225700 34.25000000
32.67453384 -13.79184532 35.86249924
-23.47012138 25.67984772 36.95000076
-30.53994179 39.66162109 7.55000019
-42.69651794 -25.63006401 6.62857151
-43.53405380 3.77579141 41.63750076
-7.88220549 23.28032112 44.40000153
46.29956436 6.48318148 18.54999924
-23.17435265 27.50213432 35.85909271
6.89902258 -32.87072754 37.54999924
-33.76402283 -7.56091690 46.49375153
-19.79888916 43.72281647 16.38333321
-31.20499992 22.95000076 32.75000000
-17.61350632 -26.14989662 39.34999847
-39.96230698 4.49267340 36.09000015
14.60299969 -31.21961403 45.81153870
-32.39043427 31.80101776 22.74090958
0.55098557 46.54171753 19.96999931
48.41321564 -11.00433445 6.69999981
-34.62133408 -28.58819771 22.75000000
-34.46998978 -10.95216656 35.29999924
-0.87053108 38.52605820 33.04999924
-44.67516708 -17.03243828 15.80000019
-6.42544556 49.97820663 4.56578970
15.90548325 -32.02445984 43.11363602
-14.70639420 12.74946594 46.84999847
-42.48509598 11.60857201 24.95000076
-21.33683777 -35.03273392 29.07500076
-12.81176376 -30.00183487 38.36818314
-33.21169281 -3.29942203 38.33000183
-37.46147156 16.47809601 29.92142868
22.57699966 -32.25000000 45.34999847
-25.57417870 13.07528400 41.75000000
5.46490526 47.97298813 15.10000038
1.93920493 -46.44142532 19.03571510
-20.40960312 -20.11322212 41.53571320
-29.89399910 -39.45000076 8.44999981
-45.44774246 19.78242493 10.08333302
-38.12602234 -5.35757208 32.70000076
-16.17410469 10.72262764 46.84999847
-47.03502274 7.19811296 17.14999962
-26.01786423 -9.61872768 42.23749924
48.15158463 12.12541771 8.00000000
-32.24354935 -33.86782837 18.46249962
-48.02220154 -1.82435942 15.28999996
-39.28748703 16.32122612 27.61249924
-27.16550064 -42.15000153 2.29999995
41.12218094 35.95015335 26.28333282
-22.70899963 33.45000076 30.64999962
22.99992371 34.54209137 29.01666641
-37.94980621 7.36239147 46.59000015
-13.54551983 22.83104324 43.18999863
-6.45801210 -49.05189514 7.40000010
-19.68016052 8.71361351 45.88999939
-37.20103455 -4.65197086 46.59000015
-8.52141190 28.09019089 41.45000076
-23.10969925 10.81962013 43.84999847
-35.04360580 -10.97762871 34.68636322
-38.61097336 6.52679682 46.61666489
27.02641487 35.87108231 23.40714264
-27.52431107 -33.41310501 25.60294151
-25.59158897 18.64125061 39.65000153
-41.24575424 28.08343697 8.72692299
42.23725891 -8.18617439 26.14999962
-32.29482651 -5.27348042 41.04999924
-48.38534164 2.29414058 14.31363678
29.43172264 6.53102922 40.54999924
-40.10144806 1.56720817 40.98846054
-38.20392609 5.15296698 46.84999847
44.60991287 22.64243507 5.31363630
-38.23440170 3.76405692 46.84999847
8.27501011 -45.85009384 18.47500038
-21.97632408 18.63647842 41.75000000
-16.21212769 -38.20587921 28.41363716
44.91299820 22.31917953 24.20000076
-24.02853775 33.27076340 29.89999962
38.20663834 -20.71225166 25.41363716
-10.58899307 47.53974152 14.27000046
-29.57018471 13.53729630 38.91363525
33.56837463 -35.48846054 10.86499977
-38.19597626 -25.86039734 20.14999962
39.70034790 31.03839302 1.10000002
-38.26281738 3.04109693 46.84999847
-24.05003738 -16.63506126 41.15000153
-24.62900734 21.25236893 38.96428680
-48.01319122 -9.00630760 12.22142887
-27.30019951 -35.95160294 22.07857132
18.77085876 -17.87961578 47.31666565
24.47792244 -43.45055008 3.79999995
-32.38061523 -7.46718645 44.41249847
8.96715641 43.60155869 24.20000076
-18.75200081 -33.75000000 32.45000076
45.42312622 23.36139297 20.45000076
19.51231766 -27.81701851 49.47499847
-35.07485580 28.83932114 22.70000076
-29.88500023 17.85000038 36.95000076
-26.54999924 8.28050041 43.09999847
-18.02799988 -26.79320717 38.75000000
-26.10761833 32.43229294 29.04090881
-30.93258667 -36.85467148 14.30000019
-38.53512955 2.34380794 46.70000076
20.28578377 -12.38365364 44.45000076
13.73203945 -30.02404022 44.45000076
-40.73020554 6.34175920 42.34999847
-19.02195168 -34.08077240 31.83421135
-45.37198257 21.18854141 7.36999989
-48.83848190 -10.71558475 6.44999981
-17.10629654 -19.58172989 43.25000000
-20.29221535 -42.29084396 17.83571434
-32.61095047 17.20962906 34.84999847
-27.46146584 -27.82046890 31.83124924
4.82870245 -21.61946487 45.34999847
38.96749115 -25.60921478 18.50000000
-38.56696701 1.59370327 46.70000076
-28.19489479 8.04798603 41.65000153
-18.78939629 -26.19427109 38.75000000
-27.51625252 32.43883896 27.70000076
13.70572567 -33.98056030 34.54999924
-38.59356308 0.90078056 46.70000076
19.99324989 25.86803055 38.75000000
7.95636559 48.89785004 10.10000038
-44.06935120 -10.91206741 22.05909157
33.75000000 42.01399994 26.29999924
0.53148413 -35.36909866 35.82500076
-38.62579727 0.28261033 46.70000076
-38.63936615 -0.49494085 46.68846130
-41.85783386 15.44858360 24.64999962
-42.99369049 -3.27550387 26.32999992
13.14400005 -29.54999924 41.15000153
32.25000000 39.20600128 18.50000000
-8.74699974 20.85000038 45.34999847
16.95000076 41.81600189 22.85000038
-29.57191277 4.32820082 47.15000153
-39.10466003 -16.49663353 27.35000038
-37.77688217 31.59341240 12.16250038
-36.43464661 28.77014351 20.56999969
-38.61819077 -1.17130077 46.71666718
-36.10755539 -13.19832325 32.75000000
-42.94202042 -6.76204443 25.67857170
43.89039993 21.24792290 22.10000038
-16.25484657 28.99201584 38.33000183
47.74747849 -14.54486084 3.87500000
-11.47570229 26.28425789 41.75000000
-49.97600174 -1.04999995 0.94999999
-43.58698273 22.64825821 12.21153831
-22.51068306 -8.22932243 44.50999832
41.40110016 28.46104813 1.70000005
-37.21512222 0.90900111 38.15000153
19.50758743 -45.04769516 10.05000019
-38.69215012 -2.59266901 46.70000076
-44.76933289 -20.73112297 9.46249962
-43.27071381 13.50259495 22.61000061
-43.37249756 24.66294670 8.70714283
43.35803986 -1.84197414 25.62500000
-20.63729668 -40.00880432 22.25000000
-34.60895538 -1.89989793 36.84999847
-18.26445580 19.82613754 42.95000076
-9.25883579 39.50646591 30.54999924
-44.70219040 -12.27128983 19.95000076
18.79730415 34.54615021 31.94375038
-46.21425247 -3.96394086 20.01666641
-21.85047531 13.51040173 43.70000076
-16.21795464 -12.36988354 46.25000000
-23.80418205 -35.25276947 26.85000038
29.28003120 40.90314484 3.20000005
-5.07790804 37.37007904 34.02500153
-47.58192062 15.62440300 6.62857151
-13.45967388 44.30344772 20.62999916
-13.59180164 -13.21489620 46.84999847
-34.51931381 7.44199038 45.79999924
-38.69622803 -3.32456160 46.56999969
29.15068245 19.07169724 36.76250076
-38.48903275 -3.83252597 46.70000076
11.76289082 14.25137043 47.15000153
49.45014954 8.66327381 0.64999998
1.29168785 28.24930191 42.16999817
28.46999931 33.14479828 25.48999977
1.10341334 -11.13084984 49.25000000
-35.75144196 -5.95700359 46.68636322
-41.25000000 6.18200016 41.00000000
26.91243553 27.30114555 33.04999924
2.59532976 23.26777458 45.04999924
-26.63409996 -8.80573750 42.04999924
48.67254257 11.35325146 5.28636360
-0.81269908 -9.97353745 49.54999924
-46.55389404 -18.12726593 5.30000019
17.93145370 -20.28272438 51.34999847
-39.09646225 2.32514024 46.25000000
7.52399349 -48.80987167 8.00000000
-35.04370117 -6.64304209 46.68333435
-40.26348114 30.49519539 2.45000005
-34.66407013 -25.92636299 25.77499962
-29.25000000 31.41200066 27.35000038
7.41699982 -6.64900017 49.54999924
-32.61247253 38.34003830 5.30000019
-34.30636215 -7.38427925 46.70000076
-15.54623985 -18.70451355 44.23571396
-18.32777023 46.52705383 7.98333311
10.86355972 -4.00519753 49.25000000
-17.56030273 -8.26033115 46.70000076
23.03658104 31.79681778 32.00000000
-13.54023552 32.66667557 36.34999847
-16.30657959 -9.64788818 46.84999847
-45.44471741 21.89428139 3.18333340
-16.05764580 -10.14679813 46.84999847
-29.59811592 31.75393295 26.31363678
9.00000000 49.52899933 3.20000005
-20.38859749 -31.24241829 33.88076782
-6.45235300 49.05031586 10.83500004
-13.88599968 -22.64999962 42.95000076
-39.74398041 3.66375661 45.65000153
-14.87468433 -11.78402710 46.84999847
39.56148148 -15.88526630 26.83571434
-46.12665939 19.76924324 5.90000010
-14.11406612 31.57820320 37.25000000
1.25886786 10.59707451 49.54999924
-28.82777023 7.78120756 41.56999969
-19.06713486 -10.23778629 45.65000153
-35.54999924 32.20999908 16.85000038
4.82128191 47.63443375 16.38333321
-14.85773563 -12.38600922 46.70000076
-43.26773834 0.90881896 26.14999962
43.62212372 23.04531670 9.94999981
10.36654568 -41.91627121 25.58749962
-25.10774803 32.88747025 29.45000076
6.17025614 36.87244415 34.25000000
-0.13093816 45.25475311 22.81250000
-37.29367828 -2.64793873 43.67499924
-40.07987213 28.24332619 12.98157883
-14.10326385 14.36449623 46.54999924
-15.07971096 15.17427635 45.95000076
-19.94527435 10.82285595 45.34999847
-21.95495796 2.86307526 45.65000153
-13.31292534 -13.57999134 46.84999847
-32.53782654 -25.14390564 29.09000015
11.07567883 -46.49864960 15.01000023
31.76818657 7.05197573 38.75000000
-7.12434626 -20.16341782 45.70000076
-1.53751695 -34.21878052 36.90714264
-42.73604584 2.36812949 26.91363716
-12.88219547 -13.89835930 46.84999847
-9.94429493 -48.13367844 9.50000000
3.35262585 46.63067245 19.33181763
-13.07299995 16.64999962 45.95000076
-0.83639944 45.88148117 21.47500038
-12.67368603 -14.38898373 46.77500153
26.46742439 26.81035614 33.86428452
-15.72312164 -13.89659405 45.95000076
30.04843330 -2.58505440 40.54999924
-17.74956322 -20.25439835 42.65000153
-43.79319382 -8.16231155 23.69000053
-12.04732418 -15.16798496 46.65000153
-12.63034153 6.47851229 48.65000153
8.24522305 -47.84135437 12.18636322
-42.16431808 18.45436287 21.36578941
-11.42979145 -15.05774689 46.84999847
36.54751968 38.66884232 18.95000076
-22.68257141 34.77409744 29.14999962
-38.33297348 -24.12904930 21.95000076
-20.27809715 -8.07899284 45.65000153
-4.41616297 48.07481384 15.18333340
-22.61775589 -26.54310608 36.34999847
-21.86543846 24.04582405 38.97499847
-19.08195877 24.00489044 40.45000076
13.19818592 40.83556747 26.91666603
15.99550915 -25.05351448 52.25000000
45.46927643 23.18323135 27.68000031
20.14999962 -19.84099960 50.04999924
-24.00248146 19.78630829 40.08333206
-32.15267181 -24.17549706 30.39999962
-30.96070480 37.27579880 15.03333378
45.45379257 21.28064346 3.20000005
-10.64218140 -15.81855869 46.76428604
-23.30052376 -41.23926163 16.42499924
14.67086601 -1.86834145 48.34999847
25.60398102 -1.15872562 43.54999924
22.39239883 -10.96254730 43.84999847
18.21719170 -41.33958435 21.64999962
-9.95791054 -16.01578903 46.84999847
46.50499725 7.16440582 18.35000038
34.98083878 -35.61938477 1.73749995
-47.48420715 -16.32900238 1.25000000
-42.76175308 4.42209339 42.95000076
16.58212662 -41.58184052 22.64999962
-17.63975334 29.88101578 36.95000076
-9.23400211 -16.39224625 46.84999847
25.06710625 -20.87200546 38.33750153
-46.34122467 15.60983849 12.94999981
-8.62829018 -16.69196320 46.84999847
-7.84413004 -17.11490059 46.84999847
-12.01648712 -32.79587173 36.22999954
-22.82462120 -19.63363266 40.54999924
11.86900043 -19.50000000 46.84999847
16.64999962 -19.78899956 50.15000153
-27.28231049 25.33587074 34.59999847
13.93697262 -30.51338387 46.54999924
22.78707695 -20.88587570 45.79999924
10.30872536 -21.44550705 46.57727432
-35.02906799 -6.70277119 35.84000015
-4.76943541 48.89997101 12.64999962
-33.72415161 -12.98633957 35.25909042
-39.83222961 23.22694016 21.22142792
13.18113708 -3.99273014 48.65000153
10.24111748 -22.17532539 46.58750153
-44.08468246 -7.48324537 23.43000031
13.39639473 -29.55753899 42.34999847
-32.09177399 -27.59851646 27.35000038
-14.84706879 16.26178932 45.68750000
1.35391819 29.33920479 41.45000076
-1.52281582 48.55585861 14.31666660
43.02608871 -15.02972889 21.14999962
-14.20391369 22.61655426 43.13750076
10.23767757 -23.56501961 46.57143021
-14.97530556 -13.85480881 46.25000000
-33.74597168 -8.12687588 36.78636551
11.86292171 -27.71724319 45.78845978
-34.00996780 9.40790749 36.34999847
26.33199310 42.06262970 9.50000000
28.39779282 -38.07437897 15.77857113
12.48003292 29.07983208 39.60714340
-34.26966476 -35.92952728 7.36999989
29.82664680 -10.21613121 39.40999985
34.01966095 -27.58587456 24.70999908
10.56953907 -24.91575050 46.50384521
-37.96972656 -29.25197029 15.09285736
-20.38642693 15.57844925 43.76428604
-21.52857399 4.77014256 45.65000153
-14.10518551 -28.64468193 39.00000000
-18.33955193 21.26332664 42.26428604
-19.78022575 44.40363312 14.30000019
26.43072891 41.45949936 11.60000038
-44.61278152 13.42937183 19.85000038
10.58349991 -25.35000038 46.54999924
-46.07858658 -12.91777229 15.75000000
25.75291634 33.06577301 28.36249924
-12.01036739 42.18968582 25.54999924
-40.15319061 30.33867073 5.31153870
11.22946262 -26.35592079 46.53125000
-29.85343742 -18.16480827 36.34999847
-11.95041084 -17.21489525 45.95000076
26.23210526 -28.54516220 44.45000076
-24.35426140 -43.64266968 4.48999977
-38.59338760 32.40861511 4.55000019
-39.34668350 0.23026152 31.85000038
-42.07173538 27.50240326 5.88636351
-42.61317062 22.49187469 15.76249981
-31.66041183 7.91199827 38.91363525
-29.85000038 -40.03099823 3.34999990
-19.72817421 16.28698921 43.77500153
11.62721825 -27.12595558 46.52999878
-41.83773422 24.57619476 14.93000031
-39.68707657 -30.14113426 5.44999981
-47.32098389 9.28024578 15.22142887
9.63077450 45.20483398 20.62142944
-7.80253792 36.39561844 34.59999847
-49.56013107 -8.64527321 3.20000005
-44.43150711 -10.29084492 21.48333359
-48.95352936 -1.24106860 12.21666622
-21.86135101 29.11389351 35.37500000
-39.92458344 -1.06974244 44.55908966
-43.24341583 -1.92464435 26.14999962
15.94561005 -45.95458221 11.60000038
-30.10013199 -40.11310959 1.66999996
47.60541916 -12.36458492 9.50000000
-42.18809891 2.32146692 43.71666718
12.40712261 42.75743866 24.16250038
11.85608006 -27.69241524 46.54999924
-16.22003174 -36.73281097 30.42499924
20.73708725 -35.98183823 28.32500076
12.51517963 39.55813217 29.07500076
-35.91069031 -34.87557602 2.41470599
-41.36415863 3.77046156 44.22499847
43.59666824 3.50371408 24.95000076
-32.84821320 -35.21993637 14.30000019
13.01695824 -29.27490044 46.54999924
-39.62300110 29.25000000 11.60000038
-42.31412125 3.50038958 40.84999847
-23.99431992 -15.84828377 41.51666641
-48.95174408 2.37127948 12.18636322
-39.41682816 -10.25724125 29.81428528
-40.51218033 -15.05468178 26.14999962
-15.73312569 6.39931631 47.75000000
13.70683002 -44.32340240 19.04999924
-44.16198730 21.25518799 12.88571453
-30.71408272 -35.88760376 17.09000015
14.17599964 -31.04999924 46.84999847
42.05401611 14.96781063 23.56999969
45.65578461 -17.45989418 11.07499981
14.76524353 -31.66098595 46.62500000
-13.54872036 -16.02655411 45.95000076
-16.95829582 -17.24850464 44.33750153
-21.95408630 -24.28206444 38.38333511
15.26134777 -32.02450180 46.56499863
-12.68773079 26.93486023 41.11249924
-20.58252525 -14.41077614 43.84999847
47.36732101 -3.29329324 16.41363716
-42.79712677 4.56084013 39.56428528
44.22925186 22.87833405 7.40000010
-37.76243973 -0.96347356 41.65000153
15.86890793 -32.66890717 46.54999924
-33.79948807 31.78897285 20.62500000
-33.67453384 30.94781876 22.08846092
-33.00862885 -5.97151995 43.13000107
17.17181778 9.90982342 46.54999924
16.20113564 -33.24608231 46.63571548
-7.13214493 29.36697769 40.90999985
16.78885841 -33.94169235 46.67499924
-10.65861416 23.30495262 43.80714417
-19.82012177 -32.14100647 33.29999924
12.59781456 -46.32680893 13.85000038
-8.49878216 18.25263977 46.54999924
38.90840530 -20.10079575 24.75000000
-4.36832237 35.31203079 36.22999954
-41.38339233 28.90302467 1.15999997
-17.65184593 44.82176971 15.81666660
-15.57029057 45.98576736 14.37500000
32.60835648 16.94701576 34.68333435
-30.94214821 31.73826218 24.81363678
-23.25101280 36.67338562 26.33461571
-6.53530264 16.60619545 47.45000076
-9.21353149 17.87707138 46.54999924
-40.29199982 0.30000001 45.34999847
-19.53465271 -9.48723412 45.65000153
44.50545883 8.64315224 22.10000038
-9.81948185 17.54498291 46.54999924
-44.33745575 10.73158550 22.10000038
-44.73281860 23.25168419 3.77857137
-18.36264992 28.92951202 37.45999908
