-33.79800034 37.22499847 2.87299991
-11.05000019 10.77499962 47.31150055
39.34109879 -30.18213654 7.08549976
-46.20929718 6.31626081 18.67300034
42.59198380 -8.75667667 24.51300049
23.53344536 -36.77647400 24.56466675
21.54016304 40.87283707 18.59799957
-0.08864181 35.12733459 35.37120056
31.81999969 -15.07499981 35.43650055
40.30099869 -25.47500038 15.37300014
-36.43589401 23.72612381 24.92300034
39.48722076 -30.82403946 1.57299995
-31.52003098 30.70970345 24.01585770
-8.55860519 43.91503143 22.12299919
15.41039944 -45.67400360 14.02299976
-44.60700989 22.75209236 4.57299995
8.94646645 -49.39569855 1.60871434
26.01252747 -35.33274078 24.10633278
22.45345497 -36.75922394 25.58483315
-42.97499847 -23.56399918 11.97299957
35.01528931 11.34176636 33.58200073
32.06240082 -17.24846268 34.14657211
-27.37557220 32.90869522 40.03966522
49.05882645 5.84902477 7.09522200
-0.54477292 45.66600037 20.07299995
29.03688240 -39.40253067 10.64799976
37.02362061 16.33420753 29.03966713
-11.57499981 27.68899918 40.57300186
12.90042782 31.75220680 36.08639908
35.03105164 -31.15540314 17.57299995
22.90427208 -22.18990517 38.40814209
42.73699951 -11.97500038 22.87299919
-21.00555038 17.28235435 41.93740082
33.36140823 -6.78173208 37.52299881
38.97921371 -31.25712776 4.07299995
-29.03743172 -41.10037231 0.58966666
39.62300110 10.37500000 28.27300072
22.35679245 -36.61431885 25.99871445
47.10091400 2.31586480 16.11585808
23.49303055 -44.27495193 0.08966666
21.01896667 -36.79595184 26.66300011
42.06783295 -21.73403358 16.12299919
-34.32443619 -36.53149796 4.42299986
37.33100128 -30.57500076 13.57299995
41.05373001 2.85716176 28.14800072
33.92552185 14.29139233 33.52842712
34.27035141 -36.54411316 1.15633333
-25.54999924 31.72500038 44.01800156
37.49842834 23.33128357 23.04442787
26.32500076 -41.47100067 9.87300014
-29.53602982 -8.16191101 39.59566498
41.86547470 27.18917084 1.05633330
35.79891205 -27.62558365 21.43549919
-6.54201746 31.25586700 38.36774826
45.14365768 -4.52846146 20.74799919
-19.92002487 -42.50792313 17.97299957
-29.34350014 15.67500019 37.36299896
-7.64002514 -37.73033524 32.11325073
38.07932663 -12.13301373 30.07439995
34.26076889 -36.54552841 1.95633328
-20.11669350 -37.91714096 26.07299995
33.02679443 5.33753490 42.07300186
34.26350021 -36.57500076 2.62299991
45.39543152 -3.71222186 20.56744385
-4.02500010 49.50450134 5.67299986
0.94947314 -44.28657150 23.53549957
38.43544769 23.23301315 21.53966713
40.80502701 -29.13321304 0.48966667
-23.94899940 17.12500000 40.37300110
25.08472443 35.44739151 24.27300072
35.63225555 5.83438349 34.25633240
-11.94882202 34.16662979 34.45050049
-4.48612785 -46.57452011 18.47299957
32.75000000 -28.07500076 25.47599983
25.44389534 -32.22008133 28.57033348
23.00242043 36.92369461 24.27300072
-26.91368484 31.67354393 27.87299919
-40.06050110 -36.66199875 26.49799919
-47.16063690 15.84286499 7.03966665
43.86715317 23.79205704 2.51049995
-33.08965683 -35.66704559 15.87300014
-31.16655922 -38.73844910 7.63014269
37.97800446 -21.74639893 24.49799919
38.98283005 -25.26522827 18.56299973
30.00150299 -35.09487915 19.52300072
44.02834702 -21.77951241 9.55157185
34.21099854 -36.57500076 3.07299995
-48.58895874 -12.13124084 5.10633326
-20.45627213 -15.59237862 42.87720108
33.98606873 -26.69211197 25.07299995
-13.75000000 1.32500005 47.79899979
-25.63033295 -12.14166641 41.22433472
33.86516571 -36.57251358 5.57299995
30.87743187 -22.66809464 32.01562500
35.34911728 18.29997063 30.02659988
33.77149963 -36.57500076 6.52299976
42.52247620 12.74767876 22.63299942
42.65095520 -15.25085449 21.04800034
33.30900574 -36.62638092 7.57299995
21.98126984 26.26708221 36.08642960
-11.97940254 41.59774780 24.94799995
33.32033157 -36.56100082 8.03966713
43.86521149 16.34905815 17.03966713
37.62469101 0.36621130 32.74800110
35.01376343 19.36557388 29.68650055
-39.41199875 -15.62500000 26.99474907
44.18650818 -17.60683060 15.02299976
-12.10000038 2.82500005 48.24449921
45.89122009 -11.68707943 16.07299995
33.22733307 -36.54999924 8.53966713
34.65147018 26.36899376 24.17300034
-38.17365646 32.36280823 4.03299999
32.31183624 -36.58048630 11.51049995
-28.64740562 -41.36597824 0.60633332
40.34342575 6.24850893 28.62299919
-7.07173586 -49.53401566 4.60871410
34.89107132 -25.61083031 25.05871391
12.48319721 -31.74664497 36.58916855
-19.60000038 19.02499962 46.96950150
29.24300003 -35.97499847 18.97299957
11.47500038 -41.39450073 25.77300072
41.83750534 -6.23181248 26.48299980
46.28287506 17.87337685 5.03966665
31.75649261 -36.56644821 12.92300034
-35.20589828 -35.32479858 17.02300072
33.02605057 8.81310844 36.19720078
-5.06250000 34.95550156 35.19150162
31.33550835 -36.56632233 13.99800014
9.50000000 13.32499981 46.84500122
48.27791595 5.22149897 11.53299999
2.96620035 -46.59766388 18.54299927
36.48044205 -29.71829033 17.03728485
41.25696182 15.27434254 23.47299957
30.80995750 -31.07943726 24.34799957
35.80805588 -32.58752060 13.01049995
7.57958889 31.51870728 37.77299881
40.89539719 28.74458885 1.61585712
-3.98040986 -45.02722168 21.88966751
30.78199959 -36.57500076 15.37300014
29.86097717 -36.65806961 16.84799957
19.74465370 -33.04579926 31.82299995
47.69558716 -6.12062550 13.24800014
26.43229485 -20.69186020 36.92924881
40.84020233 -6.16430569 43.55633163
27.50000000 1.32500005 41.71799850
48.61732864 -11.78895378 1.58550000
29.37248993 -36.59235764 17.55157089
38.82592392 14.84124374 27.52099991
23.44551086 39.81698227 18.57299995
-32.20253754 -21.83275986 31.73966599
37.72074127 -32.65863419 5.99800014
26.47363472 36.81244659 20.57299995
31.46302795 -25.21677780 29.62837410
28.82385826 -36.56934357 18.51300049
35.93016815 -34.61120224 4.58300018
28.31436539 -36.56685257 19.54800034
-30.21318817 20.43252754 34.18349838
-11.70179844 -46.57133865 15.32299995
34.14176559 -26.31707954 25.22299957
2.49337721 -43.28735733 25.18549919
38.27299881 -31.47500038 7.57299995
-47.69620514 12.82044411 9.09300041
42.38603592 14.28963184 22.10157204
-21.54616928 -33.77439117 30.21299934
-46.41994476 -3.22253370 19.03966713
-26.05900955 13.35639477 40.42340088
31.42464447 -7.17841911 39.02299881
-37.64933395 -12.69166660 30.63183403
-5.07235956 30.29159164 39.27899933
42.77750397 -20.66455269 15.42300034
-44.99871826 -15.69858932 16.01585770
10.36499119 47.62192154 11.07299995
27.37339973 -36.61640167 20.53300095
-1.00000000 -5.57499981 49.16999817
5.01181364 -35.26677704 35.13280106
33.33024979 -36.03950119 10.07299995
26.95184135 -36.63285446 21.02300072
-47.69485855 -8.26921749 13.58728600
-38.58473587 13.33989143 29.11657143
8.44999981 12.12500000 47.43899918
40.94664383 -3.20786333 39.57300186
26.95700073 -36.57500076 21.37299919
46.24701691 -10.84830284 15.87300014
-39.43975067 -37.56475067 26.08824921
14.44999981 -14.87500000 45.31800079
-20.35000038 -37.97499847 25.97400093
36.50471497 -32.75435638 10.12300014
25.80922890 -36.57708359 22.52300072
44.13315964 -18.26973152 14.66049957
-32.04561615 -38.21265411 6.60157156
-1.59166670 -22.69933319 44.48699951
40.09062576 -6.20623350 29.00871468
27.90433311 -32.04666519 26.49933243
24.99022102 -36.57463837 23.48299980
-9.25000000 -19.97500038 44.83800125
29.61182022 -40.32933807 1.58966672
31.85961151 -10.19915581 36.93700027
-27.91568756 38.63802719 15.59799957
21.95000076 1.77499998 44.59500122
43.84184647 -14.66831112 19.04299927
-3.56482220 -48.67519760 12.10871410
24.44667435 38.22007370 20.52855492
23.45163918 -36.57727051 24.98299980
26.47788620 -29.32487106 30.59714317
-29.48435020 40.72557068 -0.40200001
10.93481064 47.53538132 11.37300014
44.89756775 -13.68074036 17.02924919
21.87433243 -36.50666809 26.46633339
-17.55086708 -35.24324417 31.06866646
-22.95737457 43.66472244 9.02299976
33.03061676 16.84594727 33.21924973
34.53056335 -36.21192551 0.50157142
43.27099991 -25.47500038 0.37300000
34.47488403 -36.23563766 1.57299995
40.44545746 -0.78951037 42.57300186
17.45551682 46.32228851 6.12300014
-30.08539009 36.89583206 15.61299992
15.39873219 -40.81156921 24.59799957
28.40917206 -31.64232635 26.51942825
36.04943848 -18.78264999 29.05966759
34.50790405 -36.19783783 2.00157142
42.12041473 -7.72468042 25.61050034
-4.67580938 -50.08017731 1.04799998
36.51050949 -6.32458735 33.62300110
34.44980621 -36.19244003 3.48133326
26.23999977 -32.97499847 27.07299995
-44.93922043 -22.07249260 6.02299976
-32.62937927 -36.78339005 10.61585712
30.00968552 -29.75265312 26.67857170
-30.44233322 -12.14166641 37.92533493
5.90000010 -6.62500000 48.96675110
34.44694519 -36.17152023 4.10157156
34.37686920 -36.09644699 5.01585722
7.88750935 -48.58880234 10.02855587
30.30371475 33.18968582 21.50633240
-2.05009699 41.26927567 28.05233383
41.96977615 -25.74237442 9.07299995
31.45627022 -16.21154404 35.17183304
-34.10559845 -35.13395691 11.54800034
25.35391426 42.83842468 4.04300022
-41.06874847 -34.65250015 27.65424919
-45.39968109 -18.70284462 11.37300014
32.45000076 4.62500000 45.84000015
34.33771515 -36.07332230 5.57299995
8.95137596 -44.52638626 21.32299995
31.04599953 21.02499962 32.77299881
-8.02694893 44.81089783 20.52300072
22.86726952 43.69314957 8.05633354
38.93963242 -28.64292717 13.08300018
33.96920013 -36.22816849 6.50299978
30.42724419 -32.68729401 22.55633354
3.50000000 6.87500000 49.07474899
41.07376862 -23.22806358 16.59300041
-4.08474493 -49.84518433 4.62300014
-46.82096481 -9.09326458 15.87300014
48.39604187 1.33593893 12.11466694
9.94999981 19.77499962 44.49599838
-44.42621994 -23.70368385 2.09800005
33.93724442 -36.18093872 7.06050014
33.86053467 -36.10578918 7.58300018
17.00000000 1.32500005 46.70399857
21.90026855 -30.09646225 33.41379929
44.66648865 -14.23080540 17.15633392
46.92211914 -17.23390388 3.08299994
-46.42653656 18.76423454 4.55633354
38.65850067 31.52499962 1.12300003
32.31949997 -33.57500076 18.52300072
-5.03292656 -48.06480789 14.02299976
-38.06314468 14.87376404 29.10633278
26.00000000 -2.72499990 42.45074844
1.38446665 -40.77795410 29.09799957
36.26571655 -24.58985710 24.08550072
-35.18159485 35.98402023 0.60633332
48.78043747 9.20071983 5.51300001
48.11299896 4.52500010 12.07299995
-41.04999924 -27.17499924 26.82600021
33.41223526 -36.26242447 8.58411121
30.29128265 -23.60221672 31.94625092
33.36603546 -36.20508575 9.08728600
32.97957230 -7.24842262 42.02299881
40.28972244 -11.19726753 27.48966599
-46.54721451 3.79273605 18.60157204
40.63145065 -14.25067806 25.24799919
-42.09999847 -29.12500000 27.59474945
31.94601059 -34.75940323 16.60633278
-16.10535431 -45.35436249 14.52299976
21.84199905 21.22500038 39.40549850
0.50000000 -8.12500000 49.15349960
33.40196991 -36.11569595 9.51585674
-47.36194611 12.72222710 11.07299995
38.31399918 9.75833321 30.37966728
24.49214363 -42.84980011 8.54800034
-42.17367935 -21.22464752 17.14800072
-21.12277985 43.91661835 11.52299976
41.82799911 -27.57500076 1.12300003
-45.84730911 20.73885155 1.59800005
30.46192169 -21.14309120 33.47085571
-23.34300041 41.72499847 15.47299957
36.55883026 -12.68234444 31.54850006
-8.92052460 -42.17229843 25.86700058
-24.38312912 -44.05991745 0.05300000
29.75000000 2.37500000 43.52999878
29.43626404 -14.70269299 37.56299973
45.75745010 19.75443077 1.97300005
34.01896286 33.33561325 14.57299995
32.92689896 -36.22987366 10.57299995
-46.02069092 -26.74471283 28.61585808
41.52467346 22.36807632 16.10157204
32.42828751 -36.21102142 12.05633354
-22.90277481 43.19099045 11.47299957
44.82339096 14.28160858 16.59442902
-20.01218796 43.84846878 13.62300014
38.32387161 17.73081779 26.48274994
35.65038300 -26.82659149 22.64800072
-6.08325577 40.59539032 28.50900078
35.44435883 -35.28987885 1.58728576
-25.16132545 30.25860596 34.03966522
-25.36349106 29.20624352 38.53966522
-15.10000038 21.72500038 50.20650101
16.22500038 45.58200073 12.12300014
39.29914856 23.22747231 20.04800034
-30.85000038 -30.17499924 25.89900017
24.40533257 -29.12077904 32.48789978
33.55021667 32.31451035 17.57299995
39.97149658 -0.74662596 42.11299896
32.43400574 -36.10494232 12.49174976
-49.87050629 6.70114040 2.03966665
45.82726288 -17.19176292 10.10633373
28.90445518 39.24279022 10.61585712
42.62039185 18.36682320 18.20633316
-36.86533356 -6.14166689 33.47733307
30.99227333 -36.21833801 15.47299957
37.22499847 33.28200150 3.12299991
30.87704659 -36.06056595 16.03133392
49.91202927 -1.19892669 3.08550000
43.68430328 6.27029896 23.14800072
6.93955946 38.38111496 31.04949951
8.92473602 48.68836594 6.57299995
17.94030571 43.39175797 16.64442825
47.91576767 -14.21893311 3.07299995
30.36777878 -36.19985580 16.56299973
31.25140190 7.24868059 42.27299881
33.02251816 -24.76641655 28.17128563
42.02886200 26.80049133 1.60633337
-12.54712582 -48.57455444 3.53299999
-21.58437920 -32.83258057 31.17300034
18.96066093 35.34915543 29.52257156
29.99001694 -36.28387451 17.02300072
-22.45000076 23.22500038 50.39400101
43.72335052 2.77481604 23.99799919
32.01296234 -38.33765793 1.05633330
4.98021364 -35.78843307 34.62344360
44.12104797 -21.24081421 10.12300014
-2.56471968 43.37795639 24.57299995
12.91409588 -48.23606491 5.53550005
27.36428452 -27.04718399 31.84799957
33.77799988 -32.57450104 17.42300034
41.33018875 -18.74185371 21.04800034
39.40232086 -28.67251205 11.58300018
-40.15393448 29.48103333 6.17299986
29.93795013 -36.11728287 17.60157204
-37.00272751 12.28329945 31.52433395
2.46209455 47.25029373 16.02300072
41.60187149 0.29832903 27.56049919
39.84109879 9.24908543 28.48966599
24.17043495 37.92721558 21.27300072
29.45088387 -36.22956848 18.05633354
40.02205658 20.83701706 21.13299942
34.35897446 5.85365009 35.53300095
-19.52095413 -44.68563461 12.09300041
29.43310165 -36.09913635 18.46299934
45.28393173 16.21123505 13.07299995
36.58700180 8.27499962 32.77299881
-26.88220024 42.14295197 5.03966665
48.03207779 -10.66479206 8.59175014
-27.48765182 16.23552895 38.42824936
22.49967575 -36.33597565 26.06299973
-41.78699875 -35.67499924 24.77300072
5.12500000 49.49399948 4.77299976
29.46444321 -19.67500877 35.10133362
30.92741966 6.27972317 38.59299850
29.06022263 -36.26603699 18.56299973
-41.03499985 -38.69100189 21.60633278
46.92090607 10.73849106 13.08728600
24.92223167 16.81830406 39.62839890
28.54111481 -36.22134781 19.57299995
24.13649368 43.83296967 -0.32699999
31.54609680 -19.22570419 33.60666656
-22.57449913 44.10649872 8.17300034
45.33653259 14.79174995 14.55077744
27.99048233 -36.32152557 20.05299950
39.50059509 6.78353310 29.62299919
-18.18738174 -22.46182442 40.77299881
27.90953255 -36.12815094 20.57299995
12.96257114 -31.12944412 36.93560028
42.37976837 -8.17797852 25.05871391
5.44999981 -17.57500076 46.33499908
32.16199875 -10.20833302 36.67833328
27.43153000 -36.18082047 21.10633278
-44.77701569 18.87733841 12.67300034
36.81644821 -30.63258934 14.55871391
34.97619629 -29.25505447 20.57799911
33.34600067 -28.58900070 24.02300072
27.35647202 -36.08909607 21.43966675
-42.69486618 23.46211433 12.13966656
43.25899887 -25.17499924 3.07299995
-10.60000038 33.12500000 35.85749817
48.13586044 -12.24736881 4.99800014
-18.06212234 -35.79760742 30.15299988
-27.64189339 39.47365952 13.67300034
8.51342869 -27.54090309 40.83333206
47.47696304 -11.70773888 10.57299995
42.39366531 -13.64766502 22.55633354
1.44469023 48.38528824 12.57299995
26.96902657 -36.24509430 21.54800034
-9.54865837 45.10859299 19.47299957
49.90277100 0.84677148 3.08299994
-39.73617935 -30.86226654 2.10633326
-27.13464355 34.39935684 24.17300034
35.52447510 9.28691769 33.63133240
26.93251228 -36.05141449 22.00300026
27.32623863 -9.67801285 40.57640076
42.52936172 -26.30138206 2.58550000
-12.34455872 29.66113663 38.37300110
26.51207924 -36.21878052 22.09799957
-30.37500000 -39.48799896 7.47300005
26.38012505 -36.10773087 22.58300018
25.44768333 -36.12223816 23.57925034
-27.22512436 35.99955750 21.63966751
17.45000076 8.52499962 45.77700043
29.57296371 -15.16219521 37.23966599
35.97196960 -34.69798279 3.07299995
-31.44346046 -21.15032578 32.92074966
46.30980301 -18.68775940 2.59800005
30.94157600 -19.21940231 34.17340088
34.43864822 -35.27845001 8.57299995
33.88145828 16.81491089 32.42419815
15.38452530 -22.17238808 41.98233414
26.93376350 -25.61191559 33.43257141
-34.19190216 4.85541105 36.24966812
34.47085953 34.83998108 9.11585712
36.19400024 -1.17499995 34.27299881
21.93711472 -28.19491196 34.95771408
-31.45755005 30.25879097 24.59799957
47.58610916 -0.15471290 15.11050034
23.95526505 -36.14959335 25.02300072
-16.60000038 -9.62500000 46.04399872
13.39999962 -31.07500076 36.91049957
-22.19662285 -42.36151886 15.27299976
23.55414200 -36.30753708 25.16466713
38.55259323 -30.27320862 10.09442902
31.05848312 -35.28059006 17.06299973
22.95158386 -36.12860489 25.98999977
-8.77499962 -36.96500015 32.67300034
19.43555260 45.80808640 4.02299976
36.99499893 -3.87500000 46.87300110
23.93253899 11.37160778 42.20066833
23.85852814 40.70542145 16.01585770
8.89999962 -5.72499990 48.62099838
32.04739761 -33.31279755 19.16300011
22.37572289 -36.11198044 26.55214310
12.50000000 -13.67500019 46.24499893
47.42805481 7.83876801 13.58549976
34.09377670 35.44448471 8.03966713
21.95384026 -36.24999237 26.59799957
21.46010590 -36.23162460 27.09774971
23.89829445 9.83591461 42.51625061
41.65100098 16.52499962 21.67300034
10.43625450 33.31587982 35.54219818
32.45709991 26.31638908 27.13383293
-29.54433060 36.85814285 16.64800072
17.89999962 8.82499981 45.61949921
21.37539673 -36.10963058 27.44350052
33.84997940 -24.63251686 27.38949966
23.90165138 -35.14376831 26.54214287
3.40044713 -33.58864975 36.93783188
-25.06651306 36.71318436 23.08966637
18.95000076 -10.22500038 44.89649963
6.45810127 -39.78582001 29.68549919
42.63910675 -5.76910019 25.24799919
38.88624954 -31.55075073 1.59800005
-26.97813225 40.67244339 11.50633335
18.56026840 -31.39289474 34.22466660
19.44004631 -46.10202789 4.57299995
40.91434097 15.79044437 23.60157204
-39.20189667 30.84019661 6.09800005
20.72500038 44.55899811 9.57299995
39.84241486 29.21126175 7.03014278
-34.57500076 -40.34299850 22.62299919
40.40048599 -29.16600990 5.01585722
-40.95621109 13.74732876 25.55666733
34.83033371 -35.98899841 0.53966665
-47.70052719 1.38612127 15.61299992
26.02743721 38.88728333 17.05299950
-29.57817650 -17.18760872 36.62457275
43.22499847 22.38299942 11.52299976
34.77466583 -35.97600174 1.60633337
-18.96676826 43.56930161 15.57299995
-16.08492470 -42.16757202 22.02300072
-24.94431877 37.67854309 21.53966713
31.42255402 -24.70237350 30.06142807
48.88360596 0.78557724 10.08549976
-46.21256638 14.32449532 13.62300014
16.59876251 -19.72066689 42.68650055
40.43088531 -29.20705223 4.58300018
-18.52931023 42.37659073 19.02300072
34.81033325 -35.97900009 2.03966665
-4.11292744 -47.10435867 17.03300095
22.45014763 -38.87520981 22.13549995
-38.74969482 5.79097986 31.17300034
-45.12933350 -20.20940781 9.05633354
37.37403488 -33.11126709 4.07299995
-9.14999962 24.82500076 42.57300186
37.06526947 6.26181364 32.66049957
29.42652702 -9.66443634 39.05179977
-21.47750092 -19.12500000 40.94800186
38.86050034 -31.57119370 2.02300000
35.36595917 -35.12152100 4.98966646
41.25500107 -23.97500038 15.07299995
-25.03097153 18.30551910 39.12542725
47.81378174 -14.69299793 2.55157137
-48.35209656 -0.66666907 14.03299999
34.80133438 -35.98500061 2.53966665
31.25000000 26.22500038 28.84499931
26.84751129 -34.57719040 24.43549919
25.39218140 36.77156830 22.02300072
-32.92961502 -19.60985565 32.43875122
37.62200165 29.42499924 14.17300034
-24.12134171 37.82936478 22.07299995
27.73999977 -32.97499847 25.57299995
34.76300049 -35.97499847 3.97300005
-29.70595741 16.42247963 36.70633316
35.98336029 -34.43526459 4.22300005
30.49399948 -31.47500038 24.37299919
14.49214745 -41.20804977 24.54299927
37.10563278 -29.72210312 15.53549957
-42.51963425 -25.15660858 18.87299919
-45.49806595 16.35102463 13.57299995
22.38496971 -34.18117523 28.99842834
-43.05021286 9.34132957 24.08966637
-49.71648788 2.22688055 7.10633326
34.44800186 -35.97499847 6.07299995
44.12026215 -7.30517912 22.11300087
-41.36766815 12.79166698 25.46166611
33.84826660 36.09358978 6.57299995
42.83121109 23.74693489 9.55300045
41.36521149 13.73520470 24.14800072
45.79772568 -20.17817688 1.10633337
36.41738129 -28.23590660 19.57299995
-31.87247086 38.62211990 4.03966665
-50.04307175 4.24256802 4.05871439
-9.85000038 9.27499962 47.89199829
36.34999847 -9.47500038 33.37500000
33.49700165 3.32500005 36.67300034
38.98394012 -15.20140362 27.48600006
-41.97565842 -24.16708183 13.54800034
27.27797890 -12.13334179 39.94900131
-1.54624891 -43.06459427 25.83099937
33.88136673 -35.98918533 7.98549986
-18.50405693 -36.19214249 29.45750046
-2.01312542 -47.74103165 15.53966713
-19.45000076 1.32500005 45.92100143
23.88761520 6.87015963 43.13949966
2.94342279 49.94921494 2.07299995
33.83150101 -35.97499847 8.62300014
30.48869705 13.30869865 37.01725006
43.45468521 -24.21096420 5.58300018
49.90211487 2.81457472 2.57299995
16.35074997 47.12942886 3.12299991
5.50527954 48.19383621 12.12300014
44.81372452 -21.09459114 7.07299995
-43.44010162 11.25093174 22.57299995
37.80120850 14.80040836 28.95499992
-0.10000000 20.37500000 45.44025040
16.49701881 -40.91902542 23.69799995
30.35740280 -27.63041687 28.59987450
5.48381329 -27.89834213 41.11940002
46.35629654 0.24929565 18.51300049
-0.53177983 49.89894104 4.02299976
39.82099915 -30.15697098 4.08549976
14.03695393 -40.92875290 25.19799995
33.72499847 -35.97499847 9.07299995
41.83825684 -12.20047569 24.41049957
2.04999995 4.82499981 49.49000168
32.93733215 -35.98799896 11.53966713
14.67681980 44.64190292 17.07299995
32.36449814 -35.97499847 13.12300014
4.96626711 -34.10929108 36.34899902
13.48875999 -25.74875259 40.57300186
43.05385971 21.78152466 12.53966713
36.63355255 -32.29763794 11.02299976
-40.64266586 -29.73918533 1.07299995
-7.30854464 -47.99474335 13.52299976
40.28545761 -17.18893433 24.05633354
20.02544212 31.33570671 33.13499832
31.72999954 -35.97499847 14.47299957
21.92778587 -26.15449142 36.46971512
-26.04679489 42.89945221 0.57300001
18.92638588 -19.15937233 41.97666550
-30.10707283 -24.76012611 31.68357086
25.94005203 -25.71397972 34.07255554
38.42225647 -8.24490261 30.93300056
40.42850876 -27.17116356 11.58300018
-5.50000000 14.82499981 47.20500183
-43.87500000 -24.09950066 7.02299976
31.48021507 -34.23506927 18.53728485
17.45000076 34.62500000 31.48500061
-0.10000000 1.32500005 49.72800064
46.62200546 -14.84410858 10.13966656
41.36510849 24.32107353 13.58966637
2.90000010 -14.72500038 47.58750153
-46.47299957 -28.51549911 26.02300072
30.75200081 -35.97499847 16.57299995
-19.98805618 -44.09227371 13.57299995
38.05023575 2.38025045 44.37300110
30.24799919 -35.97499847 17.47299957
-46.22522736 18.35768127 7.17299986
39.32569122 -0.73715538 45.04800034
-0.54113287 -44.26913071 23.53549957
-12.85000038 -4.97499990 47.87099838
-42.99646759 -26.18618774 3.08411121
40.77925110 -28.20425034 7.07299995
25.58624649 33.42353821 26.62299919
6.94999981 -2.72499990 49.19400024
43.73500061 -24.00950050 4.07299995
23.84971809 33.68863297 27.96657181
44.40410614 1.76838338 22.58550072
29.89999962 -35.97499847 18.07299995
45.56627274 -20.30083084 3.04800010
22.96441460 -33.14317703 29.61319923
-8.03244686 38.27825165 31.02750015
48.17946243 -4.71134186 12.04800034
13.93994141 48.07258224 1.57299995
40.08228683 28.40666199 8.61299992
28.25328636 -35.99214172 20.44799995
44.26089859 -20.11353302 11.55633354
35.58845139 23.98741722 25.22299957
-46.61899948 -29.74699974 24.10633278
6.62500000 43.01399994 24.27300072
-16.65324402 -13.72389603 45.00299835
46.13600159 13.82499981 12.67300034
12.97012234 22.80250740 42.27225113
33.56835175 -27.77335930 24.56049919
-18.01332092 -30.58326530 35.40779877
39.95348740 -7.20556355 29.03133392
29.34498787 -32.66695786 24.02300072
48.96165085 9.79603481 1.08550000
6.91182232 46.95639801 15.27299976
27.88999939 -35.97499847 21.07299995
-25.99334335 -28.18556786 32.45460129
41.25386047 -18.53321075 21.34799957
-38.26779938 -31.93564224 7.02299976
49.78938675 -1.25357127 4.58966684
26.43499947 -35.97499847 22.87299919
3.43750000 -24.85350037 43.19775009
3.90113235 40.10873795 29.37299919
30.53668022 -19.69917107 34.24319839
-20.54776192 43.25815582 14.54442883
25.27099991 -35.97499847 24.07299995
41.65471268 -26.95442772 6.47300005
23.73950005 -36.07500076 25.46750069
29.51315689 36.79735565 16.10633278
-21.13523483 -45.59951401 1.63014281
12.98206615 -46.24922562 14.50424957
23.44400024 -35.97499847 25.87299919
20.92296219 19.76064873 40.56357193
21.79400063 -35.97499847 27.37299919
32.38154602 28.23310852 25.43000031
-46.03049850 -32.71250153 22.12299919
29.94571114 -27.66649055 28.97311020
-41.18305969 -9.22941971 27.23299980
-49.94559860 5.85936785 3.60633326
34.02386475 -35.69341660 8.56299973
28.89845085 39.65592957 9.08966637
-48.82738113 -8.53217506 8.97299957
-18.66827583 39.48812103 24.27300072
25.00175095 17.32500076 39.40325165
35.01080704 -35.74571228 0.47299999
-41.44776154 -25.65736771 12.57299995
-40.13980484 17.80875015 24.22299957
36.59257507 -15.78716660 30.03966713
35.24733353 -35.61199951 1.13966668
35.03445053 -35.73279190 1.57299995
3.46551967 36.24900818 34.04875183
-5.19358826 -47.98838043 14.42300034
41.92451859 -27.21730042 3.07299995
14.93504429 -26.70248604 39.48450089
8.95309067 -46.57017517 16.49799919
26.41017723 -17.74579620 38.45140076
34.09149933 3.30552721 36.17300034
-12.37120533 -45.50751877 17.48966599
-2.50000000 15.72500038 47.12250137
9.50000000 -19.22500038 45.08850098
34.97084808 -35.72089767 2.58411121
9.52997208 41.94437408 25.17300034
-8.55603504 48.42874908 9.17300034
1.41892338 43.67184067 24.12299919
41.90185928 -27.11716270 4.08549976
-10.97873306 -22.64851570 43.17300034
-26.43779945 -0.63499999 42.46820068
26.48551369 11.73074150 40.51525116
34.36405945 20.84549522 29.48912430
6.96765375 -48.15804672 12.53299999
-47.44273758 10.30545235 13.03966713
34.91382980 -35.67825699 3.51049995
34.91785812 -35.67496490 4.04522228
-0.02979185 -49.69834900 7.60300016
-18.57500076 34.16699982 39.57300186
8.99168110 -46.47587967 16.82299995
39.54150009 -29.33849716 9.07299995
-0.10000755 42.82527161 25.59329987
14.96404076 -45.12821198 16.08300018
-46.33687973 6.26959181 18.52300072
41.03707123 -26.20861435 11.56744480
3.91614747 -36.06927490 34.47916794
-22.90800095 -15.12500000 41.87300110
38.31795120 -14.70053864 28.84799957
46.85227585 -3.21285629 17.00157166
34.86919403 -35.63124084 4.56300020
-22.65970612 -11.19762421 43.19025040
17.12500000 43.02600098 18.27300072
-25.03698349 -43.66681671 1.03014290
47.96080017 -10.71867657 9.08300018
-0.52499998 -35.90750122 34.77299881
-35.40898895 0.78971571 35.46257019
-47.25047302 -14.70442772 9.22299957
-29.07500076 -36.83399963 22.57299995
-29.94750023 39.62500000 8.12300014
34.50586319 -35.67607498 6.50157166
34.42549515 -35.64892197 7.05157137
32.46057892 -27.71731567 26.06966591
47.79133606 -2.65717816 14.47299957
44.97684860 14.83159065 15.55157185
-2.55682540 47.47131729 15.21300030
34.35897827 -35.61056137 7.52299976
28.05244446 -21.76599121 35.15079880
25.47950554 -36.39399338 23.03549957
34.30400085 -35.67499924 8.02299976
46.94716263 -8.70819092 14.55157185
44.51164246 -0.70968533 22.57299995
-32.50356674 30.78274536 22.56299973
17.96282196 36.96811295 28.19400024
32.94983292 -33.29100418 17.57299995
33.57629395 11.37085056 35.14533234
-40.90747452 -32.16955948 19.10633278
-45.50867844 -17.21509933 12.61299992
30.65082359 35.98757172 15.62300014
39.58577347 -14.69261646 26.96549988
-14.61604977 -37.76786423 29.60785675
-42.73814392 10.30984402 24.23966599
-35.98953629 23.77847862 25.53937531
20.91234970 -23.71511459 38.61077881
33.93642044 -35.68562317 9.06299973
21.52220917 37.81676865 24.13549995
33.85468674 -35.66089249 9.51299953
-36.54454422 -4.68476009 34.01712418
43.60960770 24.31166840 0.53966665
42.73297501 -21.60935211 14.44799995
34.79133224 35.74233246 3.10633326
12.39931870 -30.17826271 37.86233521
35.50707245 -18.78948021 29.64800072
43.74385834 -2.74485946 23.97299957
33.76881790 -35.58932495 10.07299995
8.53750038 -28.39649963 40.23600006
22.01600266 -31.81051064 31.63549995
33.50004196 -35.64409256 10.60633373
-37.34400177 -31.47500038 17.27300072
27.44994926 -24.14435959 34.05677795
44.99793243 15.28730297 15.11299992
33.26221085 -35.59252167 11.53299999
32.41768646 -26.71291161 27.08124924
-22.13940239 -26.41384506 36.27299881
-41.77500153 -25.34600067 12.27299976
45.39436340 1.31687534 20.59522247
35.27750015 -32.07500076 15.52299976
32.96791077 -35.80752563 11.62300014
36.03507614 7.41986752 33.63966751
37.55216217 -0.62148058 39.07300186
28.73649979 -28.47949982 29.42300034
32.91888428 -35.72455597 12.07299995
-30.17920685 -38.69628906 12.87300014
39.98417664 0.80678070 44.56466675
-9.61344814 -36.28045654 33.17300034
-40.46940613 -27.68335724 11.53299999
36.54833984 3.42394018 44.07300186
49.67694092 -1.57755792 4.55633354
-37.98353958 19.80571747 26.13466644
32.77144623 -35.58121872 12.94799995
-4.62500000 28.98749924 40.17300034
32.46494293 -35.74291611 13.07299995
-17.56721687 -19.29318237 42.64199829
43.88067627 -3.19783211 23.59522247
28.45212364 -32.24385834 25.58183289
29.46572495 16.37456322 36.59949875
-34.43507767 31.19071198 18.92300034
-40.15800095 -34.17499924 19.07299995
-38.60940170 -41.21480179 21.61300087
13.86223221 -41.58835602 24.32299995
29.08540726 40.47045517 3.54800010
-46.97085190 -13.23841381 12.11585712
-43.34648895 18.26193428 17.53966713
49.13871002 -9.15933704 1.09800005
32.41229630 -35.63560867 13.55633354
36.30799866 15.67500019 30.37249947
32.39698410 -35.59288788 13.84799957
25.34113503 -9.14186573 42.00975037
-29.91500092 12.82499981 37.94499969
-14.87105179 47.03687286 8.97299957
31.75449944 -35.59099960 15.47299957
-21.27499962 38.48400116 23.67300034
26.24900055 -31.47500038 28.87299919
40.22900009 -0.87500000 42.07300186
-10.13272858 45.56326294 17.97299957
17.38866425 33.65445328 32.37900162
28.39869690 39.76848221 10.02299976
22.02499962 -36.86899948 25.67300034
-31.14228630 -37.53804779 19.02300072
34.95724106 -31.72703171 16.59442902
-40.08599854 -39.15050125 22.52300072
-25.62048912 -32.44051743 28.17300034
-0.55000001 -17.72500038 46.64550018
43.09956741 11.84119892 22.07925034
31.35565948 -35.65055847 16.01049995
8.49169922 48.12459183 10.59300041
42.23566818 -26.65099907 4.00633335
39.49229813 -0.72383434 41.47299957
2.51210809 49.59412384 7.02299976
29.73749924 28.28050041 28.44000053
48.81065750 -10.66419983 2.55871439
-32.51853943 16.83228493 34.10171509
-31.63125038 -28.23950005 27.14550018
28.35934067 -27.11793709 30.99114227
-33.16710281 -12.19496822 35.62474823
48.78216553 -4.64375734 9.98550034
17.49742317 -18.87079811 42.70449829
8.89999962 3.42499995 48.93450165
48.08921432 -1.66706240 13.12924957
20.49219513 -41.85277557 18.52300072
30.82999992 -21.52499962 33.00799942
30.96880722 -35.62538528 16.55633354
41.89620209 -26.17056084 8.00633335
4.40833330 -26.23133278 42.24200058
11.45420074 27.30022049 40.02000046
29.72500038 38.67599869 10.62300014
17.45211792 -23.25429344 40.54766846
30.44667053 -35.66379547 17.54522133
-2.62466908 44.12429810 23.37299919
25.85000038 -13.67500019 40.38000107
5.93246555 -27.26675606 41.45225143
21.02050400 -27.26414871 36.14574814
42.98593521 -24.69021225 7.08549976
-22.54429626 37.65979767 24.01300049
23.85511398 -29.62801170 32.43650055
-48.41252136 -11.16876411 8.55300045
37.45506287 -9.68498421 31.59266663
48.07664490 -3.17994213 13.12300014
46.34545517 -7.71246815 16.96585655
13.45602226 -44.67094803 18.48299980
29.79649925 -25.57500076 30.96949959
20.44080353 20.38740349 40.51874924
27.57225418 35.43028259 21.60633278
0.97500002 -49.96549988 4.77299976
25.81733322 38.14933395 19.00633240
33.53385925 -33.22687531 16.56466675
45.56302261 4.80463648 19.66049957
28.67300034 -9.27499962 39.67300034
29.91931725 -35.59107208 18.51300049
-7.58256960 -49.59926224 3.10299993
-46.32086563 -10.61026001 16.43966675
-19.03052330 33.38543320 32.07300186
-35.68047333 -33.85063553 10.63966656
39.30165100 0.17953511 42.62300110
-34.43673706 17.31537437 31.99399948
22.55398941 40.97767258 17.07299995
40.75833511 -24.59900093 15.53966713
-47.91603470 14.75720501 4.55871439
28.82266617 39.62566757 9.53966713
35.36103058 3.32944179 34.92300034
13.42299938 -42.40295792 23.09799957
-2.71093607 50.07814026 -0.32699999
39.86365509 28.36400986 9.53966713
-22.02333641 -26.17462921 36.60577774
-45.85229874 20.76456833 1.03299999
20.84499931 -21.55400085 39.90560150
-24.58414459 32.79734421 43.50600052
34.24088669 -19.18270683 30.95966721
-26.98376846 -4.17215347 41.93600082
20.02499962 -43.38050079 15.12300014
29.42883873 -35.67041016 19.07299995
43.93440247 19.78147697 12.54800034
32.40821838 20.29435349 31.93659973
31.81733322 -21.50866699 31.98733330
27.92337608 -35.57455063 21.44300079
39.42299271 11.84784603 28.10157204
35.10625839 -20.25779915 29.15825081
27.37628174 -35.64849472 22.01744461
37.59255600 -24.31331635 22.23966599
35.85982513 1.81262219 34.52299881
-49.42059326 -2.21977830 9.05300045
5.93587399 42.36996078 25.63363647
32.38984299 -7.08295965 40.07300186
33.95522308 -29.70601463 21.52300072
-10.57805538 -48.27614975 9.10299969
18.90369415 24.24148750 39.14749908
26.93222427 -35.65677261 22.57299995
37.42823029 31.85961151 8.54800034
-25.00695038 -15.18452644 40.65966797
-21.97500038 -43.02500153 14.07299995
-18.97500038 -45.50299835 10.02299976
-11.70056915 -37.95265579 30.57299995
-22.02275085 -15.65445995 42.09762573
7.52500010 48.49800110 9.27299976
46.25831604 -17.59631920 7.03966665
-40.16831970 -27.28305054 13.05633354
26.83822060 -35.58333969 22.84799957
24.53994751 23.81711197 36.18742752
-23.58008385 -42.84899139 11.54800034
26.47144318 -35.68623734 23.03014374
-26.62350082 30.32500076 43.52299881
-30.10971260 33.75371170 21.61585808
-40.06874847 -38.22762680 24.07299995
-42.64066696 -20.26460457 17.51300049
27.97354698 -34.19207382 23.55425072
28.61482811 -20.82129860 35.21049881
23.33633041 38.69324875 20.97299957
23.80838966 -29.05881500 33.01800156
41.40750885 -26.69065285 9.06299973
36.15200043 -0.27500001 34.27299881
49.63892365 -5.69167185 1.54799998
-15.51537132 -37.60650635 29.37899971
-26.47187805 -15.64677048 39.52062607
22.42275810 -22.64808464 38.43566513
41.47208405 -27.23101425 6.52299976
25.98049545 -35.68967438 23.58411026
48.59658813 4.77359390 10.16049957
-36.64748764 20.89698219 27.12299919
-37.43661118 11.26888561 31.42460060
40.83146667 -6.66739798 27.98299980
-44.93811417 21.75165939 6.08300018
-27.47750092 13.72500038 39.46450043
33.36825180 -31.57625008 19.99799919
-20.02003288 12.26503277 43.99499893
37.90674591 25.80464172 19.61585808
10.08597183 -49.21316528 0.19800000
33.11203003 26.96327400 25.60633278
9.44746876 44.82136154 19.64442825
-6.57499981 33.46500015 36.27299881
25.03598213 -35.68471909 24.56466675
34.34840393 -17.18162155 31.93199921
-9.55000019 18.12500000 45.39599991
35.48909378 34.48527527 6.53966665
45.36157227 -19.17686462 9.04800034
-31.81500053 -14.67500019 35.87300110
-32.03636551 -36.14794159 14.07299995
43.81484222 -23.69890022 4.56300020
33.37924576 -26.65557480 25.99355507
43.30831528 11.25263214 22.05871391
-37.57819366 6.29524517 32.59622192
27.58265305 28.91921425 29.72299957
36.49150467 -20.20842171 27.50760078
24.82071877 -35.61557007 24.92300034
-43.70100021 -24.87500000 2.57299995
-23.04999924 25.92499924 48.69900131
17.00000000 -3.17499995 46.66949844
-42.59614944 -26.69759941 3.09800005
-37.83599854 -19.47500038 26.87299919
31.99364281 38.33097458 1.04799998
24.47280502 -35.70664597 25.10862541
30.93589973 -20.21009254 33.58499908
24.97267723 11.29275894 41.57483292
20.45812416 35.48769760 28.17300034
15.55002880 25.82976151 39.62760162
40.27431107 -0.65330040 29.42300034
3.93969131 46.65834808 17.44799995
29.14999962 -7.67500019 47.25600052
-21.41633415 -22.09266663 39.50166702
10.88286209 -35.56457138 33.51979828
-4.94327211 -49.51148605 7.82299995
-46.55250168 -30.72500038 21.47299957
-23.47783661 7.73303318 43.44279861
32.27899933 -26.97500038 27.07299995
28.69874763 -36.90872192 17.72299957
38.15100861 -32.35614014 3.04800010
28.43379211 28.85021019 29.08571434
18.93315887 38.30204391 25.59600067
42.51702881 -6.17927694 39.47299957
39.34857559 -5.30908966 34.17300034
-32.06874847 -27.71574974 27.15225029
39.26877975 -30.00803947 8.01299953
-37.19488525 -32.74232864 8.53014278
-18.05270195 -46.91258240 0.12300000
40.84070206 -26.71673775 10.98133373
22.92605400 -35.68975449 26.57519913
-26.53159523 -42.89756393 -0.32699999
46.89156342 13.77649784 10.09300041
33.79449844 -29.65699959 21.92300034
44.17699814 -9.72500038 21.07299995
22.25000000 -31.07500076 32.35800171
-33.46250153 -27.19799995 26.00250053
38.89285278 -5.67349148 33.48550034
36.15606308 -1.58547485 34.70633316
22.47081566 -35.65781784 27.05883408
21.41627884 -35.58180237 27.98742867
13.25000000 2.22499990 47.85599899
12.97063255 -39.77706909 27.57740021
20.93721962 -35.75169373 28.09733391
28.47068977 -35.35998535 21.08550072
34.66699982 21.92499924 28.27300072
-26.56327820 -19.67591667 37.62828445
40.06579208 -28.79118538 8.59442902
-46.39062881 19.25796700 3.03299999
8.93182182 -29.81879616 39.16624832
-27.59279251 -36.44446564 21.27300072
35.50669098 -35.27260590 0.50300002
6.98117065 45.30352402 19.59300041
-15.59067440 -46.35766983 11.56674957
40.47488785 -13.17141628 26.02300072
35.46204758 -6.54891729 37.97299957
11.05763340 -47.43544769 12.17300034
22.91621208 -34.63584900 28.01412582
-34.52939987 -4.68961096 36.05839920
35.49085617 -35.23542023 1.05481815
36.97816849 4.37627220 33.08300018
41.77402878 19.76026344 18.54800034
41.29676437 -11.16792202 25.93966675
-43.14392853 7.34090757 24.60633278
2.43750000 27.87700081 41.15250015
44.33483505 -12.64412117 19.08966637
36.44322205 -34.22605896 3.10633326
10.44546032 -32.36724091 36.65349960
22.98986053 -30.69194794 32.09000015
35.47292709 -35.24034500 2.00300002
25.50038147 15.88275814 39.67283249
-25.44280052 30.87609673 34.54800034
35.37770844 -35.19984818 4.58300018
41.51750565 -3.16350198 27.52924919
-45.79800034 16.82500076 11.87300014
28.54407883 -21.83026123 34.66350174
-28.34426498 -38.98266602 14.37300014
4.42017412 -49.07545471 10.03966713
27.45000076 -8.07499981 45.52199936
13.42685032 -47.74232101 8.00633335
29.41811752 -20.74773598 34.57059860
7.00618935 42.44221878 25.17300034
36.27893066 4.63945675 45.57300186
30.63689232 27.94071960 27.67033386
-10.07137203 47.48156738 12.14442825
35.06582260 -35.35985184 5.06300020
7.78677130 -43.99817657 22.82299995
40.36215210 29.24394417 3.11050010
-49.17599869 -24.87500000 21.47299957
41.37500000 27.81212425 3.11050010
34.99525070 -35.31208801 6.07299995
36.32749939 -29.97500038 17.02300072
41.56704330 6.81163549 26.64442825
12.39959145 -41.63425827 24.99799919
10.92041302 -44.68004990 19.99799919
27.94828033 -20.19080544 36.08000183
3.10996675 30.01893234 39.57300186
10.42887592 -45.57962036 18.32299995
33.05169678 -6.89628315 39.02299881
34.95402908 -35.30036545 6.50157166
34.90718079 -35.21920776 7.07299995
-19.01578331 45.84104156 7.02299976
48.44517517 12.23449039 0.18966667
12.42588234 -48.66933441 0.53299999
43.02847290 17.86913490 17.58966637
34.25000000 -14.57499981 33.32699966
39.58990860 -30.28260612 5.03133345
13.47028255 -26.31690979 40.23066711
-37.72724533 21.46610260 25.17300034
38.99410248 -24.79898834 19.15157127
5.32073641 -50.01742172 0.47299999
34.40405273 -35.20379257 9.07299995
16.93840599 -26.67994308 38.64199829
38.60218048 -31.76650429 2.56466675
30.35985374 -31.67705917 24.05633354
24.98446846 -43.20186234 4.58966684
35.85739517 31.25514603 15.09799957
-44.78699875 -4.62500000 22.07299995
40.39043045 25.73412514 14.00633335
47.12016678 -6.70049095 15.09300041
-20.03505135 45.77722931 4.02299976
1.85000002 19.32500076 45.74399948
34.07205963 -35.28786850 10.07299995
-22.70566750 4.79166651 44.22466660
46.76563644 -1.18212605 17.50633240
-23.87944031 -21.59718132 38.42699814
41.92882156 -25.65662003 9.50633335
-49.55657578 -3.15633488 8.10157108
21.46479034 19.29114151 40.49840164
-19.60000038 23.82500076 51.04949951
26.53676796 40.92994308 10.17300034
-49.29299927 -8.07499981 5.27299976
35.48909378 -6.36383200 36.02299881
-24.59332275 -16.75693321 40.20999908
21.64999962 -13.67500019 42.69300079
33.97023392 -35.23712540 10.58728600
27.95935440 -10.16274357 40.00816727
40.34343338 -28.11095238 9.51299953
-24.85000038 27.87500000 46.97850037
-11.52235794 35.70552063 32.96939850
-7.61574125 -48.36321640 11.53966713
47.38070679 -12.72380924 9.05633354
35.34437561 1.75411081 39.53966522
33.91350937 -35.20125580 10.99174976
36.54149246 4.81920242 33.48550034
-16.58181381 47.27130127 2.07299995
-31.10433388 33.83989716 20.11585808
-30.46249962 -30.48749924 25.98450089
39.73099899 -30.57500076 1.57299995
46.52229309 -17.69816208 5.01300001
10.42495728 -34.20695496 35.06812668
12.47117329 -44.25455093 20.04800034
33.54175186 -35.29629135 11.59442902
30.88233376 -30.04566574 25.46033287
42.03765106 -8.22920513 25.58300018
-25.10410500 -10.66066933 41.94139862
-32.37900162 38.12500000 5.12300014
10.45983315 -20.78640747 44.12675095
34.37495041 -33.62109375 13.98966694
36.49977493 2.90524435 42.97299957
32.48918152 -35.32583237 14.06466675
-19.45000076 32.22499847 46.40999985
45.78220749 -17.66422081 9.46300030
32.43763351 -35.20682144 14.56799984
-0.10000000 13.32499981 47.91299820
45.78996277 2.80852580 19.58300018
-22.05703735 19.74051476 40.42666626
14.84153748 47.67127609 3.07299995
-14.02019119 45.11172485 16.57299995
23.47817993 -41.64907455 15.08966637
-5.55299282 49.75795746 0.57300001
46.25012207 -18.70282173 4.03550005
-11.50155067 -19.74152565 44.41125107
-41.60288239 26.85032654 8.53549957
40.50828171 -25.21744156 15.09799957
-25.24349976 31.22500038 33.02299881
-4.15000010 17.82500076 46.31700134
33.47979736 36.33469772 7.04799986
-17.03175545 -31.57144928 35.04975128
32.35460663 -35.16351318 15.08300018
-3.54999995 16.32500076 46.92599869
49.63142395 -5.22383356 2.60633326
40.88000107 -2.37500000 43.87300110
36.78200150 -5.07499981 46.87300110
31.87916374 -35.16223907 16.02300072
-17.50000000 32.37500000 47.04975128
17.89364433 -34.12092972 31.97550011
23.89999962 -3.17499995 43.65449905
26.99289703 -31.79682922 27.54800034
31.40472794 -35.12229538 16.93966675
29.92108727 26.23375130 30.04257202
37.70000076 14.42500019 29.17300034
15.53115940 47.38327789 3.12299991
-37.87500000 -29.98100090 14.37300014
24.72763443 -29.54349899 31.82299995
30.98074722 -35.19557571 17.56800079
-25.30441284 -34.24575806 26.07299995
30.46011734 -35.29590607 18.10633278
41.72600174 14.72500038 22.87299919
-49.17126083 -9.78142357 4.57299995
14.51219463 -38.83769989 28.09816742
33.81804657 -7.53884172 36.04800034
-22.22699928 21.62500000 41.57300186
-5.50000000 19.92499924 45.25949860
43.24959183 14.15569973 20.37299919
-0.48306170 -50.17148209 2.53550005
36.89750671 -28.60884094 18.08300018
-18.60673714 46.33260345 4.62300014
29.54348946 -35.33732986 19.60633278
21.98335457 38.42713928 22.67300034
39.25633240 -29.07900047 11.03966713
-27.46249962 -33.19200134 26.02199936
-28.25198746 -41.43597412 2.52300000
-34.50716400 -36.13375092 6.07299995
11.89240456 20.43164444 43.76625061
-15.46249962 -39.12599945 27.51449966
48.43336487 -10.21863556 7.05157137
36.97425842 -1.71007526 36.57300186
44.44071198 15.74983597 16.05871391
-18.53092003 -44.18894958 15.10157108
36.96213531 -30.15677452 15.07299995
-8.52047729 49.29446411 2.52300000
23.87932396 -15.66441345 40.90885544
45.61640167 13.87576103 14.56466675
2.00000000 -10.67500019 48.54600143
-26.99180794 -39.65901566 15.05871391
30.90099907 -35.07500076 18.02300072
35.49264908 -28.67677879 20.58209038
1.94744301 47.46097183 15.27299976
-42.37500000 -37.10150146 22.02300072
-8.56623363 -22.31579590 43.77225113
-7.94494057 -49.47966766 5.42299986
29.40476418 -35.21999741 20.02855492
45.38391876 12.24509716 16.59799957
28.44557381 -35.18179321 21.45299911
48.63365555 -11.28580475 2.59800005
11.89225960 34.82658005 33.57799911
33.44186783 -23.70818138 28.59399986
27.95982361 -35.16929626 22.05077744
44.62062836 4.45070648 21.64800072
27.48687553 -35.20940399 22.60633278
-48.74861145 7.40163755 9.61299992
15.05441475 -38.96216202 27.62299919
35.28400040 -33.52399826 12.02299976
27.34458351 -35.13265610 22.98966599
21.98298264 -40.23451614 20.04299927
-47.88583755 15.58967876 -0.37700000
-12.57499981 28.69499969 39.57300186
-6.57499981 48.95700073 7.77299976
36.63627243 -19.77597046 27.64800072
26.52731705 -35.29881668 23.60424995
-47.63551712 9.79650688 12.60633373
-21.95015144 -20.68365288 39.89775085
35.97493362 27.26252556 21.11585808
25.91743660 -35.18989182 24.45299911
39.34348297 20.76431656 22.55299950
-5.50000000 13.77499962 47.47650146
-7.53201628 -40.62102890 28.49379921
31.32586479 11.80763912 36.92800140
-34.20744705 -16.68136978 32.66899872
37.95403290 -13.66333961 29.54062462
33.39966202 2.32961059 37.60633469
35.89083099 -20.71519470 28.01174927
2.94253016 -42.86563110 25.77300072
-23.58893967 -43.12192917 10.59799957
4.37505913 49.79141998 2.52300000
41.45163727 -24.21259308 14.02925014
-1.54999995 -23.67499924 43.97499847
25.54592705 -35.33929443 24.56299973
40.35328674 -27.08934402 12.03299999
25.41252899 -35.16368866 24.99300003
-0.98771697 49.55841446 7.67299986
-36.49367142 -5.61010361 33.92974854
24.50872612 -16.26316261 40.23433304
0.50000000 -9.17500019 48.93000031
26.43230438 35.32988739 23.07299995
34.61468887 35.41180038 5.57299995
-46.05767441 -20.22561455 2.11299992
-3.57897472 -29.70855904 40.06885529
38.69723511 -3.97310400 35.37300110
25.04827881 -35.30051041 25.12299919
49.01041794 -7.16008091 6.51300001
-12.55000019 6.87500000 47.69250107
-36.02842331 -35.14193344 1.03299999
37.78927612 -26.68857002 19.01466751
43.32646561 -25.18701744 0.49800000
-14.07018280 -34.77657318 33.21300125
-47.32060242 -12.09199619 12.02299976
8.92500019 -38.82799911 30.27300072
-6.07799053 32.30702209 37.55362320
16.47947884 -30.83213043 35.73025131
22.98872375 -35.23514938 27.09928513
23.48106575 16.77545357 40.54940033
-4.03880787 -47.51064682 15.97299957
38.06533813 -31.70489693 7.07299995
21.51161385 -35.33369446 28.18716621
-24.06697273 11.80633640 42.13816833
20.78899956 11.12500000 43.87300110
1.45000005 6.32499981 49.28599930
6.01052904 -45.15085983 21.06049919
-23.57767677 -22.86328125 37.77299881
-34.95703888 17.22213745 31.47450066
40.42840958 -29.31338501 2.58966660
-43.71375275 -9.79525375 22.67300034
29.45204735 10.78507423 38.66633224
35.81750107 -35.07500076 0.52300000
39.87086487 -11.21186447 27.95633316
35.82199860 -35.07500076 1.57299995
28.54389000 -34.84468079 21.62299919
-10.57902336 -48.07288742 10.48966694
39.54639053 -4.69845867 30.07299995
35.76052094 -35.05833054 2.55633330
32.00506973 -31.81653976 21.56299973
35.34589767 -35.06729507 5.57299995
26.48219681 -41.90892792 7.12300014
45.81638718 -15.52157211 12.87300014
12.97455311 -48.15045166 6.09800005
-48.47665405 14.28262520 1.02300000
-29.11709213 33.88048553 22.74799919
-16.10975075 47.43526840 1.65300000
5.90000010 12.87500000 47.65274811
34.76350021 -35.05250168 8.57299995
34.39833450 -35.04100037 10.03966713
32.15000153 -11.87500000 36.27600098
-45.15277481 -21.16190147 6.60633326
-37.87500000 -33.04999924 4.02299976
34.92200089 -32.97499847 14.62300014
8.87517357 -48.10055923 11.53966713
-9.58198166 37.33925629 31.69799995
-43.51800156 -30.87500000 28.37299919
-10.60000038 9.87500000 47.57400131
45.49645233 11.83430481 16.59799957
-8.68704891 -49.44820023 1.02300000
-13.17500019 29.76149940 43.02299881
50.08645248 -3.08603096 0.12300000
28.52904129 -7.88906145 43.97299957
31.38594627 -33.74891281 19.57299995
-42.34199905 21.62500000 16.37299919
33.35873795 -29.71065331 22.56299973
14.98511791 34.46946335 32.67300034
39.31316757 -6.65696001 30.02300072
35.53848648 7.36161566 34.13299942
-30.50968742 16.77826309 35.92850113
33.19100189 17.42499924 32.77299881
-15.27499962 31.24799919 39.12300110
33.75500107 -35.07500076 12.07299995
37.80841446 -25.57449150 20.51049995
-1.14075732 -33.42171478 37.17300034
28.07600021 10.52499962 39.67300034
25.18018341 36.39138031 22.77300072
-25.14851379 32.37331009 28.69300079
-6.10833311 21.21533394 44.61999893
16.47649574 -26.86359406 38.70066833
-21.10171890 34.31957626 44.10800171
