9.3969373703002930 -25.6448917388916016 239.8459625244140625
9.4037361145019531 -26.1842784881591797 239.3283233642578125
9.4139165878295898 -27.0081748962402344 238.4792938232421875
9.4173107147216797 -27.2854175567626953 238.1847534179687500
9.4275588989257813 -28.1084995269775391 237.3586120605468750
8.2885475158691406 29.1401672363281250 237.7355499267578125
8.3044090270996094 28.2665424346923828 238.2092437744140625
8.3086452484130859 28.0537204742431641 238.4177093505859375
8.3299140930175781 26.9953746795654297 239.5039367675781250
8.3341283798217773 26.7837486267089844 239.7115173339843750
8.3552379608154297 25.7305717468261719 240.7789001464843750
8.3594522476196289 25.5206146240234375 240.9931335449218750
8.3763732910156250 24.6850986480712891 241.8832550048828125
8.3846740722656250 24.2654476165771484 242.2808685302734375
8.4011697769165039 23.4268608093261719 243.0527343750000000
8.4053554534912109 23.2193584442138672 243.2695617675781250
8.4260969161987305 22.1816539764404297 244.3068695068359375
8.4302806854248047 21.9758872985839844 244.5303192138671875
8.4509344100952148 20.9445858001708984 245.5709533691406250
8.4549846649169922 20.7370262145996094 245.7538757324218750
8.4791803359985352 19.4941120147705078 246.8344726562500000
8.5013465881347656 18.1992340087890625 247.2010803222656250
8.5192642211914063 17.1051750183105469 247.3084716796875000
8.5403022766113281 15.7779989242553711 247.2646179199218750
8.5577335357666016 14.6682825088500977 247.1880950927734375
8.5790548324584961 13.3506908416748047 247.2533264160156250
8.5965814590454102 12.2440319061279297 247.2128753662109375
8.6175680160522461 10.9138603210449219 247.1442260742187500
8.6350097656250000 9.8029594421386719 247.0655364990234375
8.6562452316284180 8.4824848175048828 247.0977630615234375
8.6738109588623047 7.3764343261718750 247.0693664550781250
8.6949205398559570 6.0504264831542969 247.0481109619140625
8.7122344970703125 4.9315404891967773 246.9058380126953125
8.7334966659545898 3.6125416755676270 246.9505310058593750
8.7545604705810547 2.2833309173583984 246.9051513671875000
8.7791824340820313 0.7347456812858582 246.8724670410156250
8.7933130264282227 -0.1466799080371857 246.8828430175781250
8.8143520355224609 -1.4783136844635010 246.8215789794921875
8.8318128585815430 -2.5931282043457031 246.7322540283203125
8.8565654754638672 -4.1343250274658203 246.7615661621093750
8.8707847595214844 -5.0094566345214844 246.8191986083984375
8.8917818069458008 -6.3456225395202637 246.7294769287109375
8.9093647003173828 -7.4534397125244141 246.6982421875000000
8.9269361495971680 -8.5623254776000977 246.6602478027343750
8.9479846954345703 -9.8966856002807617 246.5902862548828125
8.9656171798706055 -11.0012435913085938 246.5845947265625000
8.9868211746215820 -12.3225822448730469 246.6054534912109375
9.0044584274291992 -13.4265089035034180 246.6033935546875000
9.0255432128906250 -14.7590732574462891 246.5498657226562500
9.0430717468261719 -15.8745136260986328 246.4748382568359375
8.2542991638183594 19.7009963989257813 246.7022705078125000
8.6679677963256836 -6.0935111045837402 246.9892425537109375
8.6889533996582031 -7.4273924827575684 246.9138031005859375
8.7135972976684570 -8.9744310379028320 246.8939056396484375
8.7275400161743164 -9.8675174713134766 246.8196411132812500
8.7486371994018555 -11.1959037780761719 246.7884063720703125
8.7663202285766602 -12.2958927154541016 246.8100433349609375
8.7910156250000000 -13.8398103713989258 246.8129730224609375
8.8050489425659180 -14.7280197143554688 246.7757263183593750
8.6056671142578125 -16.0366268157958984 246.8963165283203125
8.6233921051025391 -17.1335468292236328 246.9331817626953125
7.3780579566955566 29.5581855773925781 237.4049682617187500
7.6255154609680176 18.0282783508300781 247.9794158935546875
7.6436018943786621 16.9357147216796875 248.0816802978515625
7.6612195968627930 15.8349008560180664 248.0830993652343750
7.6821508407592773 14.5098075866699219 248.0384979248046875
7.6998028755187988 13.4096832275390625 248.0476531982421875
7.7211575508117676 12.0933723449707031 248.0977630615234375
7.7384467124938965 10.9855289459228516 248.0252685546875000
7.7593393325805664 9.6589126586914063 247.9702148437500000
7.7770347595214844 8.5599241256713867 247.9895782470703125
7.7980556488037109 7.2360730171203613 247.9635162353515625
7.1565499305725098 29.3337135314941406 237.4870605468750000
7.1609935760498047 29.1167831420898438 237.6380004882812500
7.1790099143981934 28.2533226013183594 238.2894592285156250
7.1883888244628906 27.8267307281494141 238.6855773925781250
7.2120852470397949 26.7670669555664063 239.7311248779296875
7.2310800552368164 25.9241790771484375 240.5855560302734375
7.2452158927917480 25.2933101654052734 241.2124481201171875
7.2641916275024414 24.4571819305419922 242.0804595947265625
7.2688622474670410 24.2478733062744141 242.2855072021484375
7.2873883247375488 23.4110298156738281 243.0822601318359375
7.2967572212219238 22.9954280853271484 243.5039825439453125
7.3198919296264648 21.9568729400634766 244.5147552490234375
7.3429846763610840 20.9238433837890625 245.5329589843750000
7.3521056175231934 20.5106449127197266 245.9220733642578125
7.3750314712524414 19.4837265014648438 246.9295349121093750
7.4058442115783691 18.0359134674072266 248.1157531738281250
7.4243564605712891 16.9499359130859375 248.2919616699218750
7.4453921318054199 15.6278324127197266 248.2738189697265625
7.4628295898437500 14.5243778228759766 248.2403259277343750
7.4840984344482422 13.2064218521118164 248.2685241699218750
7.5019164085388184 12.1101741790771484 248.3117828369140625
7.5225481986999512 10.7799749374389648 248.2109069824218750
7.5400457382202148 9.6772651672363281 248.1884155273437500
7.5613636970520020 8.3608274459838867 248.2280731201171875
7.5787086486816406 7.2546973228454590 248.1734008789062500
7.5993533134460449 5.9229979515075684 248.0707702636718750
7.6171112060546875 4.8259177207946777 248.1026458740234375
7.6411366462707520 3.2695968151092529 247.9669342041015625
7.6553635597229004 2.3924508094787598 247.9969024658203125
7.6802496910095215 0.8576331138610840 248.0481567382812500
7.6940517425537109 -0.0305361542850733 247.9848327636718750
7.6973919868469238 -0.2556261122226715 247.9444580078125000
7.7185072898864746 -1.5770553350448608 247.9402618408203125
7.7324929237365723 -2.4606211185455322 247.9168853759765625
7.7567834854125977 -4.0126757621765137 247.8328552246093750
7.7708673477172852 -4.8936328887939453 247.8311614990234375
7.7954387664794922 -6.4376358985900879 247.8108673095703125
7.8093709945678711 -7.3235278129577637 247.7734527587890625
7.8337979316711426 -8.8727903366088867 247.7174682617187500
7.8478379249572754 -9.7554531097412109 247.7047729492187500
7.8724894523620605 -11.2972774505615234 247.7022857666015625
7.8865885734558105 -12.1778774261474609 247.7036895751953125
7.9111599922180176 -13.7225923538208008 247.6816711425781250
7.9252233505249023 -14.6045179367065430 247.6743164062500000
7.9494614601135254 -16.1628417968750000 247.5667877197265625
7.9635539054870605 -17.0439033508300781 247.5661315917968750
7.9872312545776367 -18.9985218048095703 246.3882598876953125
7.9925231933593750 -19.5166378021240234 245.9234771728515625
7.9976925849914551 -20.0416965484619141 245.4222259521484375
8.0079193115234375 -21.1016540527343750 244.3783569335937500
8.0130548477172852 -21.6332416534423828 243.8558959960937500
8.0182514190673828 -22.1638317108154297 243.3452758789062500
8.0208225250244141 -22.4309940338134766 243.0811767578125000
8.0306615829467773 -23.5248718261718750 241.8929290771484375
8.0359773635864258 -24.0562477111816406 241.3988037109375000
8.0414438247680664 -24.5821533203125000 240.9416351318359375
8.0466384887695313 -25.1226177215576172 240.4062805175781250
8.0542345046997070 -25.9463157653808594 239.5405578613281250
8.0593271255493164 -26.4965610504150391 238.9650268554687500
8.0644254684448242 -27.0484848022460938 238.3863220214843750
8.0669555664062500 -27.3261489868164063 238.0897979736328125
8.0786037445068359 -28.3645076751708984 237.3197174072265625
6.9827413558959961 26.9742012023925781 239.5088348388671875
7.0930948257446289 22.1606311798095703 244.3128967285156250
7.1496486663818359 19.6876945495605469 246.7606811523437500
7.4957242012023926 -1.3334773778915405 248.1571044921875000
7.5131645202636719 -2.4379882812500000 248.1233978271484375
7.5339255332946777 -3.7681872844696045 248.0475921630859375
7.5515074729919434 -4.8693523406982422 248.0418701171875000
7.5726728439331055 -6.1887841224670410 248.0494079589843750
7.5899043083190918 -7.3001341819763184 247.9696960449218750
7.7612543106079102 -18.4810466766357422 246.8782196044921875
6.9572467803955078 18.4567623138427734 247.9635467529296875
7.3917145729064941 -8.5978021621704102 248.1585083007812500
7.4128379821777344 -9.9179029464721680 248.1576995849609375
7.4302458763122559 -11.0235443115234375 248.1189117431640625
7.4513397216796875 -12.3445568084716797 248.1122283935546875
7.4690313339233398 -13.4419336318969727 248.1294250488281250
7.4901018142700195 -14.7635641098022461 248.1182098388671875
7.5074014663696289 -15.8732271194458008 248.0561676025390625
6.5670824050903320 15.9097118377685547 249.1476593017578125
6.5777158737182617 15.2517337799072266 249.1592864990234375
6.5988240242004395 13.9338607788085938 249.1601104736328125
6.6128997802734375 13.0553665161132813 249.1613006591796875
6.6270337104797363 12.1777086257934570 249.1709594726562500
7.0880198478698730 -17.2021198272705078 248.0484466552734375
6.4323348999023438 10.6429471969604492 249.2345733642578125
6.4467935562133789 9.7699947357177734 249.2884521484375000
6.4712371826171875 8.2305984497070313 249.2648468017578125
6.4849395751953125 7.3469896316528320 249.2145080566406250
6.8918313980102539 -20.3319759368896484 245.1229400634765625
6.8954858779907227 -20.8672523498535156 244.5697631835937500
6.8972735404968262 -21.1365318298339844 244.2857818603515625
6.9048337936401367 -22.2063407897949219 243.2091979980468750
6.9067735671997070 -22.4733810424804688 242.9463195800781250
6.9123606681823730 -23.2831439971923828 242.1161804199218750
6.9142551422119141 -23.5529441833496094 241.8432769775390625
6.9219822883605957 -24.6317539215087891 240.7691955566406250
6.9237627983093262 -24.9067440032958984 240.4740905761718750
6.9295268058776855 -25.7219543457031250 239.6540222167968750
6.9315805435180664 -25.9906215667724609 239.4010772705078125
6.9391498565673828 -27.0879764556884766 238.2758178710937500
6.9408841133117676 -27.3680210113525391 237.9664154052734375
5.7969908714294434 29.5200805664062500 237.1693115234375000
5.8066658973693848 29.0851612091064453 237.4580688476562500
5.8280663490295410 28.2313919067382813 238.2816467285156250
5.8334455490112305 28.0187187194824219 238.4920043945312500
5.8605747222900391 26.9605007171630859 239.5772399902343750
5.8661022186279297 26.7503223419189453 239.8076324462890625
5.8874235153198242 25.9061260223388672 240.6391448974609375
5.8979201316833496 25.4841365814208984 241.0376586914062500
5.9191279411315918 24.6445274353027344 241.8649444580078125
5.9295725822448730 24.2247943878173828 242.2615966796875000
5.9507002830505371 23.3900070190429688 243.0885772705078125
5.9559946060180664 23.1819953918457031 243.2978515625000000
5.9823508262634277 22.1444149017333984 244.3358612060546875
5.9875831604003906 21.9372558593750000 244.5399932861328125
6.0135145187377930 20.9027709960937500 245.5380554199218750
6.0186586380004883 20.6961631774902344 245.7337341308593750
6.0451331138610840 19.6736984252929688 246.8101959228515625
6.0504298210144043 19.4699554443359375 247.0269775390625000
6.0761961936950684 18.4477329254150391 248.0283813476562500
6.0812182426452637 18.2426528930664063 248.2136688232421875
6.1099801063537598 17.0021114349365234 249.1615295410156250
6.1343445777893066 15.7198333740234375 249.5693664550781250
6.1518769264221191 14.6220159530639648 249.5638732910156250
6.1730985641479492 13.3067913055419922 249.5803680419921875
6.1908941268920898 12.2122402191162109 249.6083374023437500
6.2106466293334961 10.8788661956787109 249.4372100830078125
6.2322854995727539 9.5689821243286133 249.5073852539062500
6.2496285438537598 8.4685611724853516 249.4771575927734375
6.2701306343078613 7.1435790061950684 249.4003143310546875
6.2907595634460449 5.8199157714843750 249.3391876220703125
6.3083224296569824 4.7220778465270996 249.3368988037109375
6.3292670249938965 3.4026875495910645 249.3166198730468750
6.3468241691589355 2.3047783374786377 249.3136596679687500
6.3674550056457520 0.9802218079566956 249.2511901855468750
6.3850088119506836 -0.1178900077939034 249.2474060058593750
6.4063220024108887 -1.4313566684722900 249.2766723632812500
6.4232087135314941 -2.5409774780273438 249.1821594238281250
6.4407844543457031 -3.6388223171234131 249.1811065673828125
6.4616236686706543 -4.9608173370361328 249.1452636718750000
6.4828124046325684 -6.2763948440551758 249.1576232910156250
6.4998602867126465 -7.3843989372253418 249.0830841064453125
6.5207462310791016 -8.7060384750366211 249.0528869628906250
6.5380506515502930 -9.8096113204956055 249.0131072998046875
6.5588779449462891 -11.1328582763671875 248.9738616943359375
6.5764417648315430 -12.2312841415405273 248.9707183837890625
6.5980472564697266 -13.5377655029296875 249.0430297851562500
6.6151661872863770 -14.6458978652954102 248.9757690429687500
6.6355462074279785 -15.9799432754516602 248.8703765869140625
6.6480774879455566 -17.1970024108886719 248.1280059814453125
6.6500029563903809 -17.4547443389892578 247.8930969238281250
6.6574525833129883 -18.4948902130126953 246.9109954833984375
6.6592316627502441 -18.7577533721923828 246.6517944335937500
6.6646862030029297 -19.5455913543701172 245.8879394531250000
6.2296280860900879 -4.0554141998291016 249.3802947998046875
6.2433848381042480 -4.9384303092956543 249.3408660888671875
6.2681732177734375 -6.4714193344116211 249.3639373779296875
6.2818393707275391 -7.3563265800476074 249.3122100830078125
6.3060832023620605 -8.8993301391601563 249.2639770507812500
6.3196978569030762 -9.7857809066772461 249.2044219970703125
6.3618865013122559 -12.4197044372558594 249.2035827636718750
6.3832993507385254 -13.7300243377685547 249.2461242675781250
6.1229338645935059 -11.0725622177124023 249.4348449707031250
6.1820521354675293 -14.8143072128295898 249.3537445068359375
5.4469141960144043 17.2101573944091797 249.1507873535156250
5.2815179824829102 14.6813735961914063 250.3818511962890625
5.2851834297180176 14.4637088775634766 250.3973388671875000
5.3096160888671875 12.9288978576660156 250.3823394775390625
5.3240523338317871 12.0564975738525391 250.4222412109375000
5.3553056716918945 10.0816669464111328 250.3866577148437500
5.3623366355895996 9.6436786651611328 250.3875427246093750
4.7436723709106445 26.7304611206054688 239.7758178710937500
4.7672414779663086 25.8874053955078125 240.6261596679687500
4.8310117721557617 23.5812644958496094 242.8927307128906250
4.8367304801940918 23.3724498748779297 243.0932922363281250
4.8482980728149414 22.9563312530517578 243.5074920654296875
4.8775753974914551 21.9224205017089844 244.5816955566406250
4.9064774513244629 20.8917331695556641 245.6287078857421875
4.9234876632690430 20.2736682891845703 246.2293548583984375
4.9520325660705566 19.2494297027587891 247.2548065185546875
4.9745025634765625 18.4312858581542969 248.0459289550781250
4.9856309890747070 18.0226898193359375 248.4330902099609375
5.0132684707641602 17.0034770965576172 249.3886260986328125
5.0567002296447754 15.1281843185424805 250.5192108154296875
5.0679621696472168 14.4775266647338867 250.5893859863281250
5.0889329910278320 13.1628818511962891 250.5803070068359375
5.1069779396057129 12.0726613998413086 250.6281433105468750
5.1311049461364746 10.5358257293701172 250.5847320556640625
5.1453766822814941 9.6623411178588867 250.6073760986328125
5.1690115928649902 8.1201848983764648 250.5150756835937500
5.1827545166015625 7.2411642074584961 250.4854278564453125
5.2486643791198730 3.0716352462768555 250.4058990478515625
5.2519989013671875 2.8505747318267822 250.3881072998046875
5.2588543891906738 2.4106206893920898 250.3713836669921875
5.2866702079772949 0.6552855372428894 250.3437042236328125
5.2976298332214355 0.0035789699759334 250.3868713378906250
5.3215336799621582 -1.5379090309143066 250.3182525634765625
5.3386092185974121 -2.6392459869384766 250.2690277099609375
5.3657932281494141 -4.4037795066833496 250.1754302978515625
5.3761873245239258 -5.0629134178161621 250.1607055664062500
5.3974800109863281 -6.3741159439086914 250.1835632324218750
5.4146075248718262 -7.4755830764770508 250.1384887695312500
5.4388799667358398 -9.0136060714721680 250.1058044433593750
5.4526495933532715 -9.8941011428833008 250.0763702392578125
5.4741883277893066 -11.2012367248535156 250.1255950927734375
5.4910578727722168 -12.3074083328247070 250.0523529052734375
5.5253310203552246 -14.5121135711669922 249.9614105224609375
5.5285148620605469 -14.7366952896118164 249.9261474609375000
5.5434980392456055 -16.4350490570068359 248.8902435302734375
5.5473132133483887 -17.2108230590820313 248.1608734130859375
5.5487189292907715 -17.4676933288574219 247.9313964843750000
5.5566926002502441 -19.3071022033691406 246.1112976074218750
5.5577516555786133 -19.5726242065429688 245.8406982421875000
5.5601572990417480 -20.0994529724121094 245.3297424316406250
5.5656719207763672 -21.4313468933105469 243.9899139404296875
5.5671377182006836 -21.9801979064941406 243.3695831298828125
5.5681514739990234 -22.2499790191650391 243.0894622802734375
5.5799078941345215 -24.9360713958740234 240.4410552978515625
5.5846567153930664 -26.3140411376953125 238.9738464355468750
5.5882010459899902 -27.1314792633056641 238.1650695800781250
4.4455413818359375 29.2692108154296875 237.1017761230468750
4.4768390655517578 28.2088127136230469 238.2627868652343750
4.4891290664672852 27.7851848602294922 238.7092742919921875
4.5131626129150391 26.9378356933593750 239.5577850341796875
4.5551161766052246 25.4631233215332031 241.0446624755859375
4.5785694122314453 24.6223716735839844 241.8546142578125000
4.6493253707885742 22.1238002777099609 244.3475036621093750
4.7193737030029297 19.6529273986816406 246.8188934326171875
4.7882719039916992 17.2059478759765625 249.2280883789062500
4.9907426834106445 5.7314276695251465 250.7279357910156250
5.0035629272460938 4.8430619239807129 250.6121673583984375
5.0417990684509277 2.4309878349304199 250.5760192871093750
5.0624022483825684 1.1122789382934570 250.5319213867187500
5.0839867591857910 -0.1949854642152786 250.5823211669921875
5.1010575294494629 -1.2952469587326050 250.5357666015625000
5.1215434074401855 -2.6158599853515625 250.4795684814453125
5.1666173934936523 -5.4691872596740723 250.4241638183593750
5.1771903038024902 -6.1254281997680664 250.4281311035156250
5.3213729858398438 -15.9225654602050781 249.3782501220703125
5.3418507575988770 -20.8952846527099609 244.5640869140625000
5.3517112731933594 -23.5749454498291016 241.8744049072265625
5.3554067611694336 -24.6607666015625000 240.7602691650390625
5.3584394454956055 -25.7645149230957031 239.5688323974609375
4.2150001525878906 29.4858589172363281 237.0041046142578125
4.9214482307434082 -3.6961016654968262 250.6172332763671875
4.9804434776306152 -7.4252128601074219 250.5534362792968750
5.0017418861389160 -8.7351264953613281 250.5759124755859375
5.0188765525817871 -9.8350229263305664 250.5363464355468750
5.0398106575012207 -11.1498851776123047 250.5242309570312500
5.0568528175354004 -12.2514591217041016 250.4752655029296875
5.0776348114013672 -13.5687522888183594 250.4482879638671875
5.1115794181823730 -18.5253181457519531 246.8890228271484375
4.9038834571838379 -23.3227272033691406 242.0902557373046875
4.1644172668457031 15.9788103103637695 250.3916931152343750
4.2302780151367188 13.0394697189331055 251.7489471435546875
4.2442183494567871 12.1652774810791016 251.7427062988281250
4.2719874382019043 10.4159622192382813 251.7209777832031250
4.2822837829589844 9.7589683532714844 251.7031707763671875
4.6572713851928711 -14.6665945053100586 250.4743652343750000
3.5374150276184082 29.4745197296142578 236.9933624267578125
3.5428097248077393 29.2562427520751953 237.1260070800781250
3.9862132072448730 14.5578889846801758 251.6734771728515625
4.0920052528381348 8.2578878402709961 252.0020599365234375
4.1088819503784180 7.1612253189086914 251.9514007568359375
4.1365437507629395 5.4119205474853516 251.9225311279296875
4.1456665992736816 4.7445874214172363 251.8112640380859375
4.1661710739135742 3.4298753738403320 251.7696380615234375
4.1826467514038086 2.3282737731933594 251.6852722167968750
4.2107253074645996 0.5818006396293640 251.6887664794921875
4.4522943496704102 -20.6625919342041016 244.7228546142578125
4.4528136253356934 -20.9280757904052734 244.4605560302734375
4.4532675743103027 -21.1948165893554688 244.1922912597656250
4.4543271064758301 -22.0013866424560547 243.3591766357421875
4.4547214508056641 -22.2703113555908203 243.0842590332031250
4.4570045471191406 -23.3387794494628906 242.0422210693359375
4.4579200744628906 -23.6015167236328125 241.8108367919921875
4.4601087570190430 -24.6776123046875000 240.7536621093750000
4.4603152275085449 -24.9526233673095703 240.4587249755859375
4.4611363410949707 -25.7766895294189453 239.5892028808593750
4.4613595008850098 -26.0528602600097656 239.2941284179687500
4.4629149436950684 -27.1507415771484375 238.1680603027343750
3.3510994911193848 28.1919097900390625 238.2798309326171875
3.3574523925781250 27.9785308837890625 238.4782562255859375
3.3905544281005859 26.9207592010498047 239.5711517333984375
3.3969292640686035 26.7087879180908203 239.7725677490234375
3.4230597019195557 25.8659725189208984 240.6267395019531250
3.4361186027526855 25.4458923339843750 241.0548553466796875
3.4617862701416016 24.6062507629394531 241.8811187744140625
3.4745299816131592 24.1872997283935547 242.2890930175781250
3.5001702308654785 23.3527774810791016 243.1190338134765625
3.5066807270050049 23.1452159881591797 243.3345184326171875
3.5379981994628906 22.1042613983154297 244.3247375488281250
3.5442471504211426 21.8966217041015625 244.5223541259765625
3.5761387348175049 20.8652267456054688 245.5618591308593750
3.5826086997985840 20.6601276397705078 245.7772064208984375
3.6145520210266113 19.6357555389404297 246.8278961181640625
3.6207683086395264 19.4305496215820313 247.0259857177734375
3.6522400379180908 18.4100799560546875 248.0489044189453125
3.6585996150970459 18.2070407867431641 248.2590179443359375
3.6897246837615967 17.1910457611083984 249.2633361816406250
3.6956753730773926 16.9867630004882813 249.4444427490234375
3.7262868881225586 15.9738979339599609 250.4173278808593750
3.7326724529266357 15.7736892700195313 250.6323242187500000
3.7648816108703613 14.7780647277832031 251.7322387695312500
3.7716634273529053 14.5819816589355469 251.9786224365234375
3.8018167018890381 13.5792007446289063 252.9314117431640625
3.8061888217926025 13.3675527572631836 252.9974517822265625
3.8265402317047119 12.0562410354614258 252.9501953125000000
3.8439679145812988 10.9668054580688477 252.9461822509765625
3.8633949756622314 9.6479606628417969 252.8280944824218750
3.8823630809783936 8.3247137069702148 252.6741485595703125
3.8986082077026367 7.2248730659484863 252.5786437988281250
3.9196746349334717 5.9177570343017578 252.5844268798828125
3.9352529048919678 4.8113670349121094 252.4365997314453125
3.9553794860839844 3.4954874515533447 252.3690948486328125
3.9715075492858887 2.3927173614501953 252.2625122070312500
3.9921169281005859 1.0804954767227173 252.2317352294921875
4.0087022781372070 -0.0188264772295952 252.1598663330078125
4.0313916206359863 -1.5637702941894531 252.0169525146484375
4.0474648475646973 -2.6693148612976074 251.9035949707031250
4.0759253501892090 -4.4105095863342285 251.9382934570312500
4.0859794616699219 -5.0699586868286133 251.9023132324218750
4.1058545112609863 -6.3917427062988281 251.8113708496093750
4.1227979660034180 -7.4894046783447266 251.7655792236328125
4.1465902328491211 -9.0256862640380859 251.7067871093750000
4.1601891517639160 -9.9036979675292969 251.6732940673828125
4.1665501594543457 -10.3479299545288086 251.6210937500000000
4.1766204833984375 -11.0081815719604492 251.5852966308593750
4.1969542503356934 -12.3266429901123047 251.5290832519531250
4.2125344276428223 -13.4425973892211914 251.3710632324218750
4.2212724685668945 -14.9097671508789063 250.3670043945312500
4.2235865592956543 -15.9371700286865234 249.4060821533203125
4.2241244316101074 -16.1952571868896484 249.1617431640625000
4.2252984046936035 -17.2433242797851563 248.1010589599609375
4.2254528999328613 -17.5079612731933594 247.8236083984375000
4.2272138595581055 -18.5544319152832031 246.8044738769531250
4.2277264595031738 -18.8158302307128906 246.5548095703125000
4.2288870811462402 -19.6069240570068359 245.7727966308593750
3.6551604270935059 9.7177200317382813 253.5480651855468750
3.6747145652770996 8.4019041061401367 253.4450073242187500
3.6905651092529297 7.3013901710510254 253.3257751464843750
3.7114157676696777 5.9949216842651367 253.3176727294921875
3.7303400039672852 4.6722183227539063 253.1660308837890625
3.7469124794006348 3.5761604309082031 253.0988311767578125
3.7662127017974854 2.2552335262298584 252.9737091064453125
3.7830321788787842 1.1605569124221802 252.9241790771484375
3.9718682765960693 -11.3698310852050781 252.1150207519531250
3.9848201274871826 -12.2544898986816406 252.0329742431640625
4.0121750831604004 -26.8905544281005859 238.4114837646484375
3.3897545337677002 13.4886255264282227 254.3672027587890625
3.3975040912628174 13.0595350265502930 254.4218292236328125
3.4100587368011475 12.1816787719726563 254.3238220214843750
3.4343039989471436 10.6605596542358398 254.3123779296875000
3.4500634670257568 9.5627098083496094 254.1935577392578125
3.4706270694732666 8.2568721771240234 254.1678009033203125
3.5952677726745605 -0.0665781646966934 253.5948333740234375
3.6138188838958740 -1.3932874202728271 253.4198455810546875
3.6302902698516846 -2.4901680946350098 253.3471984863281250
3.6507794857025146 -3.7998745441436768 253.3128051757812500
3.6713361740112305 -5.1090888977050781 253.2831878662109375
3.6868712902069092 -6.2164359092712402 253.1404113769531250
3.7065176963806152 -7.5358180999755859 253.0424804687500000
3.7229349613189697 -8.6352787017822266 252.9638519287109375
3.7430732250213623 -9.9504194259643555 252.9015655517578125
3.2770178318023682 7.2143616676330566 254.6045074462890625
3.3016605377197266 5.6974740028381348 254.6218261718750000
3.3144404888153076 4.8205442428588867 254.5413818359375000
3.3378047943115234 3.2932515144348145 254.4695892333984375
3.3512024879455566 2.4206814765930176 254.4315948486328125
3.3741564750671387 0.8891234397888184 254.3302154541015625
3.3905057907104492 -0.2056866884231567 254.2541198730468750
3.4095530509948730 -1.5251061916351318 254.1219482421875000
3.4263885021209717 -2.6164145469665527 254.0793457031250000
3.5548691749572754 -11.1662054061889648 253.5346374511718750
3.5707588195800781 -12.2703046798706055 253.4209899902343750
3.2416141033172607 -4.0654072761535645 254.6417999267578125
3.2560455799102783 -4.9283623695373535 254.6758728027343750
3.2774877548217773 -6.4745659828186035 254.4726562500000000
3.2910685539245605 -7.3458900451660156 254.4477539062500000
3.3139228820800781 -8.8800373077392578 254.3406219482421875
3.3312540054321289 -9.9660682678222656 254.3337860107421875
3.3501281738281250 -11.2893676757812500 254.1911468505859375
3.3661561012268066 -12.3896398544311523 254.0925750732421875
3.3616049289703369 -13.4576272964477539 252.7933807373046875
2.1907153129577637 29.4813232421875000 237.5023956298828125
2.2007606029510498 29.0401115417480469 237.6743621826171875
2.2260160446166992 28.1773471832275391 238.3368988037109375
2.2404379844665527 27.7535705566406250 238.7795867919921875
2.2691116333007813 26.9081420898437500 239.6571197509765625
2.2759535312652588 26.6961097717285156 239.8568572998046875
2.3030529022216797 25.8490085601806641 240.6413116455078125
2.3238635063171387 25.2178039550781250 241.2617187500000000
2.3509562015533447 24.3765029907226563 242.0511932373046875
2.3578360080718994 24.1671409606933594 242.2556152343750000
2.3860616683959961 23.3349170684814453 243.1194305419921875
2.3996646404266357 22.9179229736328125 243.5208740234375000
2.4341154098510742 21.8811645507812500 244.5555419921875000
2.4687500000000000 20.8507499694824219 245.6069183349609375
2.4830842018127441 20.4424400329589844 246.0589447021484375
2.5170247554779053 19.4164695739746094 247.0740661621093750
2.5507156848907471 18.3946170806884766 248.0785369873046875
2.5640225410461426 17.9864921569824219 248.4710235595703125
2.6933298110961914 14.6448125839233398 252.8682403564453125
3.1351242065429688 -14.0596246719360352 251.7404937744140625
3.1269521713256836 -14.6568470001220703 250.7072906494140625
3.1256227493286133 -14.9270601272583008 250.3775024414062500
3.1242444515228271 -16.4845695495605469 248.8421936035156250
3.1239275932312012 -17.2631855010986328 248.0962829589843750
3.1239826679229736 -17.5215148925781250 247.8581390380859375
3.1233096122741699 -19.0885410308837891 246.3549194335937500
3.1229865550994873 -19.6142883300781250 245.8449554443359375
3.1221978664398193 -20.1465301513671875 245.3018035888671875
3.1190707683563232 -21.4960041046142578 243.8591308593750000
3.1189725399017334 -22.0246486663818359 243.3595123291015625
3.1188306808471680 -22.2904891967773438 243.1028900146484375
3.1165657043457031 -23.9086894989013672 241.4592895507812500
3.1154332160949707 -24.7220687866210938 240.6335296630859375
3.1136910915374756 -26.3510322570800781 239.0102233886718750
3.1122026443481445 -26.9078006744384766 238.4034881591796875
3.1114845275878906 -27.1863899230957031 238.1014404296875000
2.2050206661224365 22.0846061706542969 244.3496093750000000
2.2889041900634766 19.6160106658935547 246.8496704101562500
2.3700969219207764 17.1654281616210938 249.2138977050781250
2.3766574859619141 16.9615077972412109 249.3995666503906250
2.4113981723785400 15.9552736282348633 250.4496612548828125
2.4257075786590576 15.5565900802612305 250.8964996337890625
2.4638371467590332 14.8149452209472656 252.3786010742187500
2.4759011268615723 14.6446752548217773 252.9060516357421875
2.4883284568786621 14.4770088195800781 253.4563903808593750
2.5207788944244385 13.9498987197875977 254.8123168945312500
2.5416274070739746 13.1226387023925781 255.2395019531250000
2.5561378002166748 12.2592906951904297 255.2754821777343750
2.5596427917480469 12.0427446365356445 255.2769165039062500
2.5733907222747803 11.1749124526977539 255.2657318115234375
2.5799765586853027 10.7391929626464844 255.2421722412109375
2.5963168144226074 9.6489114761352539 255.1754302978515625
2.6214354038238525 8.1368169784545898 255.2217559814453125
2.6351292133331299 7.2684979438781738 255.2070617675781250
2.6603631973266602 5.7577233314514160 255.2611236572265625
2.6766829490661621 4.6666836738586426 255.1925506591796875
2.6980602741241455 3.3702051639556885 255.2232360839843750
2.7097156047821045 2.7292888164520264 255.2998809814453125
2.7167723178863525 2.2967805862426758 255.3059234619140625
2.7231550216674805 1.8591529130935669 255.2691650390625000
2.7397270202636719 0.7695592641830444 255.2161865234375000
2.7533371448516846 -0.0995081886649132 255.1960754394531250
2.7771947383880615 -1.6202058792114258 255.1632995605468750
2.7914097309112549 -2.4844160079956055 255.1817932128906250
2.8157362937927246 -4.0012431144714355 255.1790008544921875
2.8343062400817871 -5.0742073059082031 255.2541198730468750
2.8530166149139404 -6.3931932449340820 255.1135406494140625
2.8703253269195557 -7.4773283004760742 255.1071624755859375
2.8943166732788086 -8.9973812103271484 255.0825195312500000
2.9082808494567871 -9.8636007308959961 255.0850372314453125
2.9312329292297363 -11.3939628601074219 254.9922485351562500
2.9449844360351563 -12.2624263763427734 254.9806518554687500
2.9047839641571045 -15.9707374572753906 249.3379516601562500
2.9026334285736084 -18.5691909790039063 246.8552246093750000
2.8980996608734131 -20.9610385894775391 244.4254760742187500
2.8936913013458252 -23.3765659332275391 241.9813385009765625
2.8903837203979492 -25.8044433593750000 239.5881958007812500
2.6150629520416260 -4.8524003028869629 255.3199768066406250
2.6184492111206055 -5.0697574615478516 255.3141021728515625
2.7236080169677734 -13.3126668930053711 253.8103485107421875
2.7128765583038330 -13.6695632934570313 252.9042053222656250
2.6700985431671143 -28.4275608062744141 237.4984130859375000
2.3040826320648193 0.9902244806289673 255.3088836669921875
1.0416874885559082 30.1106262207031250 236.9621276855468750
1.0694992542266846 29.0110988616943359 237.4778747558593750
1.1003036499023438 28.1601886749267578 238.3495483398437500
1.1078294515609741 27.9474678039550781 238.5585327148437500
1.1385412216186523 27.1007461547851563 239.4289550781250000
1.1534199714660645 26.6771507263183594 239.8396759033203125
2.0309560298919678 -14.9351720809936523 250.4468231201171875
2.0104944705963135 -20.7133636474609375 244.6734924316406250
2.0094361305236816 -20.9806690216064453 244.4007110595703125
2.0083124637603760 -21.2489185333251953 244.1238708496093750
2.0056726932525635 -22.0482482910156250 243.3348846435546875
2.0047841072082520 -22.3153648376464844 243.0709381103515625
2.0003116130828857 -23.3961601257324219 241.9582061767578125
1.9995567798614502 -23.6634387969970703 241.7008972167968750
1.9963024854660034 -24.4772148132324219 240.8688507080078125
1.9949425458908081 -24.7519435882568359 240.5746459960937500
1.9917811155319214 -25.8303470611572266 239.5306091308593750
1.9911322593688965 -26.0992012023925781 239.2773895263671875
1.9871695041656494 -26.9288616180419922 238.3963012695312500
1.9855970144271851 -27.2087707519531250 238.0870056152343750
1.9940934181213379 -28.1724815368652344 237.7304534912109375
0.9653171896934509 25.6137714385986328 240.7990570068359375
0.9727656245231628 25.4030094146728516 241.0006561279296875
1.0041923522949219 24.5677852630615234 241.8945312500000000
1.0197665691375732 24.1510734558105469 242.3352813720703125
1.0501476526260376 23.3175716400146484 243.1785430908203125
1.0575749874114990 23.1091251373291016 243.3809509277343750
1.0938012599945068 22.0665702819824219 244.3475799560546875
1.1008415222167969 21.8578739166259766 244.5305938720703125
1.1379690170288086 20.8249626159667969 245.5496978759765625
1.1458563804626465 20.6208782196044922 245.7784423828125000
1.1846560239791870 19.6014080047607422 246.8913879394531250
1.1918722391128540 19.3959350585937500 247.0856933593750000
1.2289197444915771 18.3758144378662109 248.1110382080078125
1.2364267110824585 18.1728610992431641 248.3217926025390625
1.2726159095764160 17.1553783416748047 249.3066253662109375
1.2799624204635620 16.9529972076416016 249.5098876953125000
1.3163617849349976 15.9427480697631836 250.5108947753906250
1.3238036632537842 15.7420959472656250 250.7202758789062500
1.3617731332778931 14.9811029434204102 251.9984893798828125
1.3877259492874146 14.6365070343017578 253.0124664306640625
1.4013960361480713 14.4684047698974609 253.5573120117187500
1.4144445657730103 14.2978181838989258 254.0692291259765625
1.4534381628036499 13.3202219009399414 255.2252655029296875
1.4613877534866333 12.8917751312255859 255.2778015136718750
1.4752044677734375 12.0243482589721680 255.2710723876953125
1.4918298721313477 10.9365854263305664 255.2277679443359375
1.5128556489944458 9.6369752883911133 255.2337799072265625
1.5323077440261841 8.3284626007080078 255.1545257568359375
1.5499259233474731 7.2459392547607422 255.1647338867187500
1.5725125074386597 5.9557542800903320 255.2558288574218750
1.5932562351226807 4.6547589302062988 255.2467346191406250
1.6111255884170532 3.5742993354797363 255.2710876464843750
1.6324536800384521 2.2772173881530762 255.2941589355468750
1.6357884407043457 2.0596094131469727 255.2859191894531250
1.6520528793334961 0.9687287807464600 255.2221984863281250
1.6705309152603149 -0.1072714552283287 255.2803497314453125
1.6899846792221069 -1.4171594381332397 255.2000732421875000
1.7082206010818481 -2.4945335388183594 255.2450714111328125
1.7286555767059326 -3.7976832389831543 255.2189331054687500
1.7496075630187988 -5.0970454216003418 255.2215118408203125
1.7672145366668701 -6.1786594390869141 255.2319030761718750
1.7886145114898682 -7.4743342399597168 255.2596282958984375
1.8077141046524048 -8.7883491516113281 255.1584625244140625
1.8254766464233398 -9.8686323165893555 255.1776580810546875
1.8467280864715576 -11.1653165817260742 255.1972351074218750
1.8673626184463501 -12.4671325683593750 255.1820526123046875
1.8569825887680054 -13.2981815338134766 254.0022277832031250
1.8440500497817993 -13.6588020324707031 253.0715637207031250
1.8306181430816650 -14.0248374938964844 252.1117401123046875
1.8205764293670654 -14.3621129989624023 251.3433380126953125
1.8119599819183350 -14.9376258850097656 250.4553527832031250
1.8102536201477051 -15.2029895782470703 250.1585083007812500
1.8067009449005127 -15.9869670867919922 249.3555297851562500
1.8060160875320435 -16.2443885803222656 249.1157684326171875
1.8021820783615112 -17.2867336273193359 248.0923309326171875
1.8007045984268188 -17.5527896881103516 247.8063507080078125
1.7962357997894287 -18.6068191528320313 246.7420196533203125
1.7927509546279907 -19.6563224792480469 245.7301788330078125
0.3695182502269745 29.6435012817382813 236.8733673095703125
0.8606887459754944 -26.9623107910156250 238.3195648193359375
0.8579511046409607 -27.2461280822753906 237.9886932373046875
-0.3098497092723846 29.6287574768066406 236.8008117675781250
-0.2843976318836212 28.9892959594726563 237.4722595214843750
-0.2512897253036499 28.1376552581787109 238.3316040039062500
-0.2358127385377884 27.7101879119873047 238.7123565673828125
-0.1939744651317596 26.6539897918701172 239.8125152587890625
-0.1611802577972412 25.8111019134521484 240.6641693115234375
-0.1293342113494873 24.9688205718994141 241.4742279052734375
-0.0961317643523216 24.1341705322265625 242.3498687744140625
-0.0635269656777382 23.3011932373046875 243.2001647949218750
-0.0475652664899826 22.8849010467529297 243.6103515625000000
-0.0072771287523210 21.8492031097412109 244.6564941406250000
0.0325986407697201 20.8174800872802734 245.6871948242187500
0.0560597442090511 20.1993370056152344 246.2856750488281250
0.0958708152174950 19.1759071350097656 247.3193969726562500
0.7116760015487671 -15.4850931167602539 249.8776855468750000
0.7042890787124634 -16.5326690673828125 248.8031768798828125
0.6992750763893127 -17.3172149658203125 248.0214080810546875
0.6977584362030029 -17.5780506134033203 247.7681884765625000
0.6874991655349731 -19.1584663391113281 246.1863403320312500
0.6840929985046387 -19.6874732971191406 245.6581115722656250
0.6821613311767578 -19.9543170928955078 245.3821716308593750
0.6741493344306946 -21.2791557312011719 244.0822601318359375
0.6685696840286255 -22.0841026306152344 243.2608642578125000
0.6666700839996338 -22.3533630371093750 242.9846343994140625
0.6575909852981567 -23.7005825042724609 241.6214599609375000
0.6523997783660889 -24.5102939605712891 240.8138732910156250
0.6501209735870361 -24.7856216430664063 240.5165405273437500
0.6419413685798645 -25.8818931579589844 239.3721771240234375
-0.5262365937232971 29.4142837524414063 237.0692291259765625
-0.4272786378860474 26.8602619171142578 239.5769348144531250
-0.3364282846450806 24.5467472076416016 241.9009857177734375
-0.2375312298536301 22.0523929595947266 244.4477539062500000
-0.1411758512258530 19.5806312561035156 246.9000244140625000
-0.1001253277063370 18.5631408691406250 247.9696044921875000
-0.0757511109113693 17.9543476104736328 248.6014404296875000
-0.0376029126346111 16.9343986511230469 249.5434570312500000
0.0010515667963773 15.9214258193969727 250.5122833251953125
0.0279885139316320 15.3314590454101563 251.2684173583984375
0.0810235813260078 14.6205024719238281 253.0717773437500000
0.0965566486120224 14.4535551071166992 253.6287536621093750
0.1237480118870735 14.1048412322998047 254.5643615722656250
0.1545291841030121 13.0780630111694336 255.1821594238281250
0.1726946681737900 11.9975357055664063 255.2153167724609375
0.1970281004905701 10.4800024032592773 255.2107696533203125
0.2108760327100754 9.6125907897949219 255.2055969238281250
0.2341810464859009 8.0900039672851563 255.1529235839843750
0.2477343529462814 7.2210083007812500 255.1338348388671875
0.2770754992961884 5.4945859909057617 255.2005615234375000
0.2906871140003204 4.6259508132934570 255.1842346191406250
0.3126263618469238 3.3312911987304688 255.2315216064453125
0.3309727311134338 2.2530407905578613 255.2741546630859375
0.3562154769897461 0.5043937563896179 255.1476745605468750
0.3669831454753876 -0.1439080834388733 255.1618957519531250
0.3923096954822540 -1.6551563739776611 255.2048339843750000
0.4059578478336334 -2.5236561298370361 255.1901550292968750
0.4348087608814240 -4.2508273124694824 255.2351226806640625
0.4481168091297150 -5.1214876174926758 255.2042541503906250
0.4695462882518768 -6.4179334640502930 255.2281646728515625
0.4870814383029938 -7.5003285408020020 255.2327117919921875
0.5146142244338989 -9.2356929779052734 255.2148437500000000
0.5243499279022217 -9.8906412124633789 255.1796264648437500
0.5500746369361877 -11.3974142074584961 255.2429656982421875
0.5655598044395447 -12.4946918487548828 255.1481933593750000
0.5052029490470886 -14.4077930450439453 251.1949462890625000
0.4884256720542908 -16.0109806060791016 249.3479003906250000
0.3990356028079987 -28.3595046997070313 236.8484039306640625
-0.2649745941162109 17.1346530914306641 249.3575134277343750
-0.1667159944772720 14.9600830078125000 252.0426635742187500
0.3298849165439606 -13.3617238998413086 253.7595672607421875
0.3136091232299805 -13.7237768173217773 252.8208160400390625
0.1723545342683792 -28.1143169403076172 236.9800872802734375
-1.4378910064697266 29.8491477966308594 237.0284881591796875
-1.4102016687393188 28.9771327972412109 237.5735931396484375
-1.3778769969940186 28.1186466217041016 238.3127136230468750
-1.3696087598800659 27.9049587249755859 238.5055999755859375
-1.3249465227127075 26.8479766845703125 239.6100006103515625
-1.3160368204116821 26.6372013092041016 239.8303833007812500
-1.2822948694229126 25.7912940979003906 240.6342926025390625
-1.2652764320373535 25.3699760437011719 241.0431823730468750
-0.4315951466560364 -20.5112705230712891 244.8114471435546875
-0.4359028339385986 -21.0403842926025391 244.2984008789062500
-0.4459410905838013 -22.1127967834472656 243.2062225341796875
-0.4488885998725891 -22.3849754333496094 242.9130706787109375
-0.4590061604976654 -23.4639968872070313 241.8134613037109375
-0.4684431552886963 -24.5424957275390625 240.7414245605468750
-0.4711573719978333 -24.8156414031982422 240.4569244384765625
-0.4806571006774902 -25.9005393981933594 239.3782348632812500
-0.4913591146469116 -26.9998302459716797 238.2422332763671875
-0.5008545517921448 -28.3492546081542969 236.9933166503906250
-1.4533543586730957 24.5300731658935547 241.9192352294921875
-1.4344108104705811 24.1161327362060547 242.4004058837890625
-1.3996627330780029 23.2822170257568359 243.2358093261718750
-1.3915119171142578 23.0727252960205078 243.4229888916015625
-1.3491953611373901 22.0328445434570313 244.4249420166015625
-1.3404204845428467 21.8264274597167969 244.6385498046875000
-1.2976024150848389 20.7943534851074219 245.6651611328125000
-1.2889991998672485 20.5886955261230469 245.8724822998046875
-1.2463506460189819 19.5624446868896484 246.8961029052734375
-1.2380733489990234 19.3570041656494141 247.0908050537109375
-1.1959490776062012 18.3353195190429688 248.0967407226562500
-1.1875092983245850 18.1316604614257813 248.2989807128906250
-1.1459127664566040 17.1143951416015625 249.2869873046875000
-1.1381900310516357 16.9094581604003906 249.4602813720703125
-1.0888255834579468 15.6946725845336914 250.6280670166015625
-1.0402317047119141 14.9474649429321289 252.0611572265625000
-0.5258997082710266 -13.0399141311645508 254.5393829345703125
-0.5396079421043396 -13.3717088699340820 253.7922210693359375
-0.5579082369804382 -13.7350797653198242 252.8450469970703125
-0.5894793272018433 -14.4309616088867188 251.1673431396484375
-0.6017948389053345 -14.9996271133422852 250.3250427246093750
-0.6113271117210388 -16.0383892059326172 249.2947692871093750
-0.6142928004264832 -16.3027992248535156 249.0113830566406250
-0.6244097948074341 -17.3512687683105469 247.9520874023437500
-0.6358842849731445 -18.6599597930908203 246.6750640869140625
-1.2257699966430664 14.6032733917236328 253.1175384521484375
-1.2085555791854858 14.4365386962890625 253.6764068603515625
-1.1925023794174194 14.2660322189331055 254.1882324218750000
-1.1513533592224121 13.2708177566528320 255.1540527343750000
-1.1286129951477051 11.9772310256958008 255.2265930175781250
-1.1124303340911865 10.8883209228515625 255.1737823486328125
-1.0912812948226929 9.5885992050170898 255.1812896728515625
-1.0703642368316650 8.2879657745361328 255.1792755126953125
-1.0522079467773438 7.2073626518249512 255.2075347900390625
-1.0309141874313354 5.9086232185363770 255.2212219238281250
-1.0107846260070801 4.6045360565185547 255.1867828369140625
-0.9927380681037903 3.5237996578216553 255.2107543945312500
-0.9717612266540527 2.2237715721130371 255.2114562988281250
-0.9518800973892212 0.9182285070419312 255.1665496826171875
-0.9352824687957764 -0.1697439998388290 255.1302947998046875
-0.9124379158020020 -1.4599334001541138 255.2089385986328125
-0.8955648541450500 -2.5464313030242920 255.1841735839843750
-0.8744757771492004 -3.8456695079803467 255.1896667480468750
-0.8519101738929749 -5.1363987922668457 255.2572479248046875
-0.8355466127395630 -6.2258305549621582 255.2110595703125000
-0.8146216273307800 -7.5257587432861328 255.2098236083984375
-0.7927193045616150 -8.8196945190429688 255.2499084472656250
-0.7780820727348328 -9.9201412200927734 255.1304779052734375
-0.7561391592025757 -11.2137441635131836 255.1723175048828125
-1.5972914695739746 -25.3764572143554688 239.9220733642578125
-1.6077860593795776 -26.2015895843505859 239.0551452636718750
-1.6187443733215332 -27.0328979492187500 238.1677398681640625
-1.6271238327026367 -28.6042861938476563 236.9394531250000000
-2.7858080863952637 29.6096096038818359 237.1673431396484375
-2.7629621028900146 28.9576244354248047 237.6083984375000000
-2.7274241447448730 28.1014423370361328 238.3856964111328125
-2.7093987464904785 27.6751041412353516 238.7845153808593750
-2.6630811691284180 26.6157112121582031 239.8302459716796875
-2.6232876777648926 25.7785568237304688 240.7707977294921875
-2.5949835777282715 25.1494560241699219 241.4203643798828125
-2.5598862171173096 24.3071193695068359 242.1898803710937500
-2.5511882305145264 24.0968360900878906 242.3797149658203125
-2.5151588916778564 23.2608661651611328 243.1862792968750000
-2.4961762428283691 22.8466796875000000 243.6263427734375000
-2.4516665935516357 21.8070926666259766 244.6188049316406250
-2.4059209823608398 20.7761116027832031 245.6604461669921875
-2.3879408836364746 20.3643035888671875 246.0660400390625000
-2.3427319526672363 19.3392066955566406 247.0918731689453125
-2.1940665245056152 15.8769521713256836 250.4124908447265625
-1.7161940336227417 -16.5791568756103516 248.7743530273437500
-1.7259199619293213 -17.3672790527343750 247.9713745117187500
-1.7465182542800903 -18.9586696624755859 246.3156433105468750
-1.7564084529876709 -19.7556858062744141 245.5016479492187500
-1.7735646963119507 -21.3401298522949219 243.9730987548828125
-1.7840315103530884 -22.1487407684326172 243.1317596435546875
-1.7995483875274658 -23.4892959594726563 241.8026885986328125
-1.8104416131973267 -24.5564002990722656 240.7968750000000000
-2.9064984321594238 27.0348777770996094 239.4055023193359375
-2.6824715137481689 22.0119800567626953 244.4331970214843750
-2.5729539394378662 19.5398387908935547 246.8815460205078125
-2.5185449123382568 18.3140697479248047 248.0992736816406250
-2.5005993843078613 17.9065742492675781 248.4991149902343750
-2.4553771018981934 16.8925685882568359 249.5139617919921875
