-8.19065475 61.66876221 214.59878540
-9.21527672 60.72134018 214.49499512
-9.48894882 60.32551193 214.60289001
7.40000010 72.05500031 173.32000732
-9.84222031 59.95146561 214.52000427
-10.03182316 59.50523758 214.54057312
-10.56771088 58.72168350 214.52000427
-10.81765461 58.12832642 214.59100342
15.52999973 57.59999847 195.02600098
-11.32613564 57.37294388 214.57962036
-11.61550426 56.74047852 214.58189392
-12.00413132 55.98744202 214.52856445
11.02999973 25.97500038 237.91999817
-12.27118397 55.37030029 214.57960510
-10.09000015 67.03739929 151.60000610
-12.90757942 53.96155167 214.63299561
-13.34381199 53.08321381 214.57000732
-13.53551865 52.50930405 214.55599976
-14.35246944 50.33048248 214.57672119
-1.72000003 23.10000038 252.22734070
-15.50624847 46.84574890 214.57015991
-15.64176369 46.16382599 214.64582825
-15.98202324 44.79224396 214.58267212
-18.85075951 30.37660027 214.72000122
-19.47986984 25.30326080 214.61120605
-19.49339676 24.71735573 214.77766418
-20.21748352 16.16156387 214.74159241
-20.19143486 -7.73928356 214.72000122
-12.56953049 55.06664658 214.41999817
0.99428570 7.02857161 257.46115112
-14.72903442 49.58939743 214.41999817
-6.15404224 63.89113235 214.04414368
-6.59889889 63.68883514 213.93859863
-7.30237484 63.05551147 213.94377136
-8.00807667 62.36371613 213.97238159
-9.55000019 68.88300323 193.57000732
-8.91465664 61.07929611 214.02580261
-11.31368065 57.88408279 213.83880615
-11.49716377 57.36315155 213.95680237
-11.74701881 56.81837082 213.99275208
-11.94794846 56.54423904 213.91999817
-12.18028355 56.00362778 213.97610474
-24.93141556 50.46748734 159.99142456
-13.30138588 53.67718124 213.97000122
-13.46901035 53.18611145 213.97000122
-6.13000011 72.35340118 162.75999451
-13.80343533 52.12067413 214.06950378
-14.25587082 51.07189560 213.94525146
-14.47169399 50.41085052 213.96485901
-14.56239414 49.89470673 214.16250610
-14.94516373 49.01077652 213.98275757
-15.15882397 48.31809998 213.98649597
7.53000021 32.34999847 242.25199890
-15.48222828 47.54034805 213.90660095
-16.71040154 42.79437637 213.90600586
-18.10829735 37.27089310 214.11999512
-18.77809143 32.28353500 214.04600525
-20.21705818 18.82937431 214.04980469
-20.23527527 -9.25107765 214.02000427
-20.12355232 -9.92848587 214.11999512
-19.51897621 -15.62423134 214.11999512
-7.79447460 62.80241394 213.82000732
-8.50295925 62.03094101 213.82000732
1.90793657 63.81586838 217.52189636
-15.38240051 48.12144470 213.82000732
-6.52172804 64.24636841 213.09860229
-6.71878576 63.83617020 213.32699585
-7.35563660 63.25952148 213.34800720
-8.23485374 62.42597961 213.32350159
-14.64999962 66.06300354 179.02000427
-8.62336349 62.19995880 213.09143066
-9.25188160 61.46444702 213.09143066
-4.59999990 72.55124664 161.47000122
-9.91485023 60.75591660 213.13429260
-10.63874054 59.40326691 213.08024597
-11.43376827 58.11404037 213.20321655
-12.33679581 56.06983185 213.29364014
-25.02566719 43.41979980 176.21434021
-12.83616161 55.29371643 213.19441223
-13.08799267 54.63873291 213.27149963
-13.44990540 53.91736221 213.15333557
-13.80759716 52.66769409 213.30979919
-14.06534386 52.41420746 213.11999512
-14.23524952 51.82364655 213.20823669
17.53000069 8.47500038 224.04499817
-14.52951336 50.66109085 213.45599365
-14.80380821 50.28388977 213.19956970
-15.18198109 49.06000519 213.16600037
-15.25362778 48.47806168 213.35966492
-15.50916290 48.29323959 213.09156799
-15.66231823 47.63383102 213.23422241
-15.84283066 46.86701584 213.23966980
-15.96841240 46.29870987 213.27149963
-16.72660255 43.39894104 213.25599670
-18.78537941 33.01109314 213.53250122
-20.22134399 21.11115265 213.48175049
-20.90101624 5.06182384 213.52000427
-20.92329025 3.38704157 213.52000427
-20.92753220 2.75488806 213.52000427
-20.94874573 1.50330901 213.52000427
-20.92647171 0.84463906 213.52000427
-11.50001907 65.81732178 197.16999817
-6.68430614 64.34011078 212.49418640
14.02999973 6.34999990 234.88299561
23.71861839 49.78513718 163.57000732
-7.77835989 63.54359436 212.44000244
-9.37749386 61.57173538 212.46330261
-9.99943161 60.90273666 212.46977234
-10.28648567 60.25352859 212.55313110
19.08163071 51.04285812 189.36999512
-10.99921227 59.04589462 212.53433228
-11.60067368 58.19542313 212.46620178
-12.00639343 57.39958954 212.48287964
-12.26203251 56.75018692 212.50062561
-12.81442165 55.90883255 212.44000244
-13.02354050 55.32308960 212.50054932
19.53000069 -34.40000153 200.92100525
-13.41171169 54.59713364 212.44857788
-13.61202812 53.82348633 212.51150513
-13.78426266 53.32176971 212.51300049
-14.02963543 53.04797363 212.41999817
-14.16260052 52.51549530 212.49127197
-10.57942295 61.54134369 209.68919373
-14.75947189 51.06170273 212.42939758
-14.90887928 50.42263412 212.46774292
-15.51922607 48.89466476 212.47000122
-15.98767948 46.83834076 212.56365967
-16.12839890 46.88754272 212.41999817
-16.27753448 46.23859406 212.43479919
-20.92541122 14.20789623 212.61999512
6.15500021 -13.27499962 248.26025391
-20.89465141 -5.55114174 212.61999512
-7.19410419 64.11620331 212.32000732
-2.50000000 76.98750305 177.52000427
-9.88181686 61.28847885 212.32000732
-10.56276131 60.06023407 212.32000732
-12.61619949 56.38610840 212.32000732
-7.17224789 64.25714111 211.82440186
1.31875420 64.37854004 218.80000305
-7.44225502 63.94118881 211.91119385
20.09595680 56.07763290 170.47000122
-7.94755077 63.65208054 211.86273193
-8.81362534 62.36317825 211.86677551
-9.90727425 61.46552658 211.83999634
-10.15579891 60.95836258 211.85133362
-10.37932491 60.41979218 211.96475220
-11.25537205 59.26792145 211.86999512
-11.50293064 58.78647995 211.83331299
-11.97269726 58.05943680 211.86999512
18.64336205 59.58221054 158.61999512
-12.42142296 56.78150940 211.92471313
-12.67347527 56.58480453 211.82000732
-13.09578514 55.44463730 211.89799500
-13.37480736 55.16838455 211.83999634
-13.74500465 53.94441223 211.89100647
-14.36568451 52.50010681 211.88562012
-14.54210472 51.96009064 211.82624817
-14.70216465 51.82527161 211.82000732
-14.87343025 51.17343521 211.83514404
-15.11638260 50.40336609 211.88056946
5.92999983 72.29160309 183.88000488
-24.42240715 46.55485153 174.66999817
-15.80164528 48.37273788 211.81942749
-16.08950806 47.69718170 211.82000732
-16.25568581 46.90181351 211.78199768
-16.59893417 45.56848145 211.86199951
3.20180798 64.92591095 213.92691040
-18.01115036 39.27578735 212.04766846
2.52925897 41.37935638 242.73353577
-19.48489571 30.90135574 211.99374390
-20.90631866 16.94652176 212.02000427
-20.92965317 16.33345985 212.02000427
-7.34549141 64.44626617 211.12570190
-8.71845436 63.02330399 211.12408447
-1.00000000 68.83499908 207.66999817
-9.36089420 62.29308701 211.10000610
-9.62508869 61.82512665 211.26220703
-10.07098103 61.61052322 211.08192444
-10.54129028 60.81593704 211.03565979
-10.81403637 60.24718475 211.10353088
-10.95925140 59.76692963 211.23950195
13.27999973 -16.39999962 233.84300232
-11.38497543 59.44428253 211.09008789
-11.64494610 58.93798065 211.13800049
-11.93682003 58.66963959 211.04499817
-12.11932564 58.13056564 211.10699463
-11.39273834 62.31645584 205.59599304
-13.05595303 56.07211304 211.21249390
-14.34380341 53.18562698 211.11320496
-14.52121639 52.62295532 211.14799500
-15.13368130 51.04103088 211.11788940
-15.24847412 50.44032669 211.16799927
-15.42270565 50.38913727 211.04499817
-16.14989471 48.21011734 211.05999756
-20.21869278 26.61236000 211.21675110
-4.59999990 74.01399994 171.22000122
14.14999962 65.52600098 173.16999817
-20.23647690 26.18168068 211.41299438
25.96213341 -9.74675941 192.82000732
-20.94874573 18.89813614 211.41999817
-7.83808041 64.18162537 210.94186401
-8.55917358 63.57208252 210.97000122
-9.80120754 62.05639648 210.97000122
-12.60983562 57.22827148 210.97000122
-14.76668739 52.38476944 210.97000122
-9.17329597 62.70127869 210.82000732
-11.15673065 60.01781082 210.82000732
-16.79732132 46.14225388 210.82000732
11.68766880 68.13628387 164.14857483
-7.24786615 64.92609406 210.33972168
-7.91106129 64.38205719 210.35140991
2.48825121 58.79697037 225.04747009
-8.61467171 63.67951965 210.39143372
-8.82824516 63.11724854 210.43049622
-9.20985031 62.91594315 210.33999634
-9.94673061 62.13479233 210.33999634
-10.21237183 61.67043686 210.41380310
-10.70203495 60.85105515 210.34109497
-10.99567699 60.28879166 210.38983154
-11.51957226 59.55916214 210.39645386
-12.28140354 58.13944626 210.38732910
-13.01229858 56.76795959 210.40911865
-13.68014240 55.30499649 210.37554932
-14.26036739 53.87919235 210.35150146
-14.69933605 52.95381165 210.36999512
19.18748665 58.76414108 162.82000732
-15.00297356 51.88949966 210.41838074
-5.94999981 73.54299927 171.97000122
-15.89303303 49.11746979 210.42565918
-16.09445763 48.97492218 210.32000732
-16.25165367 48.30977249 210.33479309
-16.73163223 46.32469559 210.36067200
-16.90480232 46.10831070 210.32000732
-18.96999931 -16.64999962 216.39500427
-17.30829811 44.21047211 210.44400024
-18.08341217 41.56356812 210.48432922
-19.47007370 33.66149521 210.37420654
-19.49127579 33.04366302 210.62167358
-20.20269966 28.72469711 210.29266357
-20.90525818 22.46089363 210.52000427
-21.64878082 11.96141815 210.52000427
-21.64878082 11.11289024 210.52000427
-21.57453537 -2.11354208 210.52000427
-21.58620262 -2.73827100 210.52000427
-10.51184940 61.49424744 210.22000122
-7.34321690 65.06246185 209.76882935
-8.74162865 63.71146011 209.72772217
-9.40237999 62.96187210 209.72540283
-10.05083179 62.30939102 209.77691650
-10.35382366 61.73995590 209.76919556
-10.87420368 60.94887924 209.76510620
-9.85000038 70.62400055 183.82000732
-11.66169834 59.64404678 209.81582642
-11.98402500 59.36594772 209.74000549
-12.18634987 58.78951645 209.75155640
-12.64731216 57.97285843 209.72000122
-12.85220623 57.37619781 209.79122925
-13.58648300 55.99636459 209.71755981
-13.81303120 55.35445023 209.83233643
-34.91976166 17.17138100 152.61999512
-14.10965061 54.69323349 209.71356201
-14.39844990 53.91815948 209.76969910
-14.98374844 52.57075119 209.71789551
-16.36340332 48.37541580 209.76184082
-16.57699585 47.59895325 209.77638245
-17.03720093 46.16944122 209.71020508
-18.75151443 38.68396378 209.77239990
-19.48012352 34.37010956 209.82025146
-20.19723129 30.09519005 209.72250366
16.28000069 55.09999847 196.50500488
14.02999973 -0.64999998 234.91400146
-20.22240448 29.42103386 209.87275696
-21.60211182 -5.69220972 209.91999817
-7.80615997 64.80420685 209.61999512
-9.11177826 63.48828888 209.61999512
-13.99930000 55.22362518 209.61999512
-7.40700102 65.30835724 209.07138062
-8.65494061 64.33745575 208.95681763
-10.21533680 62.39680099 209.07423401
-10.72422028 61.61685562 209.00131226
-11.57095337 60.24251175 209.02316284
-12.11713600 59.50161362 208.95092773
-12.78682995 58.05485535 208.99760437
-13.76388359 56.11096573 209.01417542
-13.83313370 55.59742737 209.29949951
-14.57539272 53.95432663 209.04086304
-14.93871498 53.18098831 209.06861877
-15.84827042 50.49670410 209.07856750
-16.55869865 48.33920670 209.02000427
-16.72526741 47.57593155 209.05366516
-16.85077858 47.63820648 208.96000671
-17.01018143 46.94131851 208.99957275
-18.11678314 42.37054443 209.32000732
-20.21816254 30.85998917 209.12875366
-20.91480446 25.22815514 209.32000732
26.12636948 29.99733543 182.29800415
-20.94874573 24.83783340 209.32000732
-10.59882355 62.14690781 208.82000732
14.28695202 63.02694702 185.16999817
-8.36507320 64.86290741 208.72000122
-8.05000019 72.10050201 166.27000427
17.39768600 52.59747314 194.98625183
-16.75701714 48.22326660 208.72000122
13.20479202 56.13158798 206.21600342
-8.04801369 65.15300751 208.28253174
-8.56447697 64.92089081 208.22000122
-10.38197613 62.57802582 208.25300598
7.03000021 -16.89999962 245.65699768
-8.47000027 -46.65000153 213.57499695
-10.63846493 62.26034927 208.22485352
-11.43025303 60.82405090 208.26629639
9.95417500 64.25670624 201.31182861
-12.30510139 59.60155869 208.25544739
-12.95444012 58.11727905 208.23800659
-13.42481613 57.32534409 208.27000427
-13.71277428 56.69004440 208.29299927
-13.76996613 56.27233887 208.38966370
-14.06293583 55.92777634 208.22943115
-14.27477169 55.28049469 208.27137756
-14.48797989 54.65942764 208.28028870
-15.12278652 53.25458527 208.27513123
-15.46979904 52.53633499 208.24000549
-15.84284306 51.11020279 208.29774475
-16.10985374 62.74723434 151.72000122
-16.72365952 48.35891724 208.33799744
-16.86308289 48.32933426 208.19500732
-17.03116226 47.53855515 208.27616882
21.78000069 29.85000038 201.07699585
-17.17826653 46.83801651 208.30171204
-14.04697704 61.45787430 198.29499817
-17.30564499 46.26847839 208.34100342
-19.54231071 36.58358383 208.41999817
-20.95086670 27.38553810 208.41999817
-21.57438660 21.17315674 208.40524292
-22.28305626 3.47401571 208.41999817
-22.30851173 2.15596867 208.32000732
-14.72797394 54.46737289 208.11999512
-8.18434715 65.26498413 207.72599792
-8.62045193 64.98606110 207.65437317
-9.21996498 64.30358124 207.61999512
-9.45087337 63.81689835 207.67399597
-10.18005657 63.03191757 207.67324829
-10.76874733 62.34103394 207.59855652
-10.97594738 61.69116592 207.69186401
-11.53111362 60.92502213 207.67327881
-13.07071877 58.10963058 207.67242432
-13.30032539 57.91876221 207.66999817
-7.30000019 67.08599854 149.47000122
-13.73891735 56.86326218 207.71057129
-15.57592297 52.50365829 207.63943481
-15.81984997 51.76886749 207.61083984
-15.98131561 51.07952499 207.63066101
-16.53754425 49.69419098 207.62640381
-16.85459709 48.88653564 207.61999512
-17.11156082 47.63362122 207.68432617
-17.29562187 46.97428513 207.65660095
-17.53455353 46.25857544 207.59483337
-20.20752716 33.61297226 207.60200500
-24.40119362 30.19947052 192.52000427
-21.62438583 22.33149338 207.82000732
-11.58851624 68.51116943 186.66999817
-14.86055565 62.23670959 192.97000122
-22.29684448 11.97308540 207.82000732
-22.34669495 10.53801250 207.82000732
-22.33608818 -0.50346005 207.82000732
-22.31593704 -2.00853682 207.82000732
-11.86100960 60.72208786 207.52000427
-14.66115189 55.03694916 207.52000427
2.72279596 52.78108597 232.36239624
-15.46725368 53.08533478 207.52000427
-17.47190094 46.81683350 207.52000427
-8.72445965 65.15492249 206.91700745
-8.91938305 64.58445740 207.10049438
-9.35410976 64.35382080 206.86976624
13.84639645 51.79269409 210.41267395
-10.02490044 63.63190842 206.87384033
-10.71312046 62.94795609 206.82290649
-12.01265717 60.81818390 206.80749512
28.10678673 -17.36017799 182.32000732
-12.29531384 60.26024628 206.96235657
-13.14549732 58.18842316 207.10125732
-13.46239758 58.07207108 206.82000732
-14.37743282 55.99065018 206.93966675
-8.47000027 -42.40000153 220.58900452
-14.58266640 55.29067612 207.01832581
-14.74642944 55.29193115 206.86000061
-15.21631908 53.92956543 206.96818542
-15.93151951 51.95124817 206.95033264
-16.61538315 49.85092163 207.09233093
-16.80580711 49.65091705 206.84500122
-17.10166168 48.39773941 206.94067383
-17.31346703 47.68141174 206.93225098
-9.39999962 70.19474792 188.77000427
-17.42735291 47.19654846 207.22000122
-17.56741524 46.83683014 206.85612488
-21.64453888 23.83656883 207.22000122
-20.93177414 -18.87833595 207.22000122
-11.18536854 62.16776657 206.77000427
-15.43437290 53.68885040 206.77000427
-16.15084839 51.64760971 206.77000427
-8.57296276 65.49505615 206.61999512
-9.17541790 64.82472229 206.61999512
-13.95899487 57.30464172 206.61999512
-8.60889435 65.66654968 206.16999817
-10.17008209 63.74126434 206.18791199
-10.81893444 63.01880264 206.17439270
20.35972595 19.86474991 211.72000122
-11.02925777 62.36917496 206.22224426
-11.34167767 62.21413422 206.11999512
-11.56367302 61.62966919 206.17660522
7.43707132 52.59067535 226.55072021
-12.12320995 60.88562393 206.20759583
-12.45883179 60.32618332 206.16082764
-13.60952854 58.10993195 206.17163086
-14.06611824 57.29398727 206.12887573
-14.30606174 56.65343094 206.18075562
-23.61386681 50.51285172 171.22000122
-14.51846313 56.03232574 206.16133118
-15.15459919 54.53921509 206.21655273
-15.49741268 53.86765289 206.11166382
-16.12062073 52.25377655 206.16999817
-16.26858330 51.76534271 206.16999817
-16.61279869 50.46883774 206.14083862
-16.95981407 49.78371048 206.13999939
10.95298195 55.37029648 214.62655640
-17.12394524 48.98656082 206.21914673
-17.31386566 48.25620651 206.19200134
-18.03437614 45.61081314 206.21099854
-18.76185417 42.81611252 206.17324829
-19.47996140 39.32033539 206.19166565
-20.22452545 37.14484406 206.17225647
-20.93601799 31.40119743 206.32000732
-22.33608818 17.52776337 206.32000732
-21.60423279 -15.66029358 206.32000732
-10.61261177 63.50419998 206.02000427
-12.01586533 61.30120850 206.02000427
-16.78247261 50.37004471 206.02000427
-17.49311447 48.11083984 206.02000427
-5.75000000 71.90699768 160.02000427
-10.28671169 63.86648941 205.60499573
-10.91893291 63.09185791 205.57029724
-11.66851139 61.74804688 205.52671814
-13.00202465 59.53997040 205.53033447
-13.70308495 58.15655518 205.54100037
-14.14880848 57.42258072 205.57310486
-14.42086315 56.80868530 205.55917358
-15.20993996 54.71819687 205.56632996
25.28000069 23.72500038 190.75250244
-15.41316032 54.51616669 205.57000732
-15.62194729 53.94882202 205.57278442
-16.17418289 52.51947403 205.57000732
-16.33523369 51.80864334 205.54800415
-16.49738121 51.17351532 205.59486389
-16.90869141 50.28413010 205.57000732
-17.08575058 49.68869400 205.49732971
-17.24904060 49.03629684 205.58782959
-17.62506294 47.69761658 205.61582947
-18.04063225 46.31514740 205.52732849
-20.89359093 32.41943359 205.72000122
-23.01915359 4.98793125 205.61999512
-23.00501251 2.14536190 205.61999512
-22.35093880 -10.67094803 205.72000122
-11.27976704 62.68643188 205.41999817
-13.29502201 59.18625259 205.41999817
-14.04172611 57.81163788 205.41999817
-16.77822876 50.79006577 205.41999817
-9.23168850 65.69104767 204.72000122
-9.44165707 65.11580658 204.87220764
-10.79050446 63.72362518 204.82270813
-12.14135647 61.57989120 204.77012634
-12.41545010 60.96743774 204.93800354
-12.73400879 60.85272217 204.72000122
-13.12618828 59.67963791 205.00439453
-13.40252209 59.43046951 204.72000122
-13.81763649 58.30164719 205.00740051
-14.07399178 58.00944519 204.76177979
-14.33744335 57.42438126 204.80661011
-14.59270000 56.79842758 204.91700745
9.02999973 -6.27500010 245.63600159
13.82275295 65.88192749 173.29272461
-14.78376389 56.60205841 204.75999451
-14.93158054 56.01329803 204.78269958
-15.17249870 55.36614609 204.88040161
-15.80192947 53.89493561 204.79600525
17.43230438 52.15124512 195.22000122
-16.16835022 53.22074509 204.72000122
-16.34941673 52.48217773 204.79124451
-17.04714584 50.41732788 204.76188660
8.94999981 70.92199707 169.91999817
-17.28348351 49.78940964 204.77557373
-17.66499710 48.32650757 204.82099915
-18.03728104 46.80682755 204.95899963
-19.50129700 41.63373947 204.82000732
-0.85000002 66.83100128 218.02000427
-20.23011208 38.11501312 205.05450439
-21.64878082 28.08345222 205.11999512
-22.24092102 22.50984192 205.10624695
-22.98226357 11.91073895 205.12232971
-23.05521584 -0.20859650 205.11999512
-23.04036713 -1.49623799 205.11999512
-23.00218391 -2.80721402 205.11999512
-18.20305061 46.84087372 204.61999512
-8.79391479 66.29359436 204.52000427
-9.86555481 64.85349274 204.52000427
20.44935226 50.28925705 183.66999817
5.30000019 72.34950256 186.66999817
-11.19915676 63.45434952 204.52000427
-15.43649483 55.17589569 204.52000427
-16.76125908 51.62162399 204.52000427
-17.51008606 49.40060043 204.52000427
-8.76542759 66.38154602 204.03900146
-9.26831341 65.80711365 204.01724243
-9.91646671 64.95940399 204.07000732
-10.96018028 63.84747314 204.12786865
-11.25749397 63.51268387 204.07000732
-11.43979931 63.00275803 204.05250549
-11.66403770 62.39694595 204.18200684
-11.97594261 62.21131897 204.03999329
-13.10581398 60.28548813 204.04133606
-13.30350685 60.04326630 204.07000732
-13.51264381 59.51813126 204.04856873
-14.00672436 58.62516403 204.07000732
-14.19771767 58.12120056 204.01710510
-14.48925495 57.44505692 204.11563110
3.79999995 70.25399780 199.86999512
-9.63052559 67.49608612 198.52000427
-15.08025074 56.05531311 204.05789185
12.01260376 66.21765137 185.77000427
-15.17537117 55.53081894 204.18449402
-13.97000027 -41.15000153 209.68099976
-15.64528370 54.62022781 204.09066772
-16.31189919 53.18054199 204.10000610
-16.81747437 51.67783737 204.07000732
-17.32579803 49.79818726 204.18899536
-17.55463219 49.58657074 204.02000427
-17.84451485 48.28324127 204.09182739
-18.02922058 47.60788345 204.08180237
-18.28754997 46.99608612 204.07000732
-18.42422867 46.33823395 204.12300110
-18.75568199 44.83965683 204.16650391
-21.54772377 30.20321846 204.22125244
-22.24437332 24.63403893 204.23260498
-22.98821259 16.12374496 204.15499878
-23.03824615 -6.58952808 204.22000122
-8.77657413 66.48962402 203.42828369
-9.41226196 65.83385468 203.45570374
-10.02348900 65.08613586 203.44183350
-10.37083912 64.62622070 203.51225281
-12.09364414 62.26016617 203.43589783
-12.75054932 61.47020721 203.41999817
-12.97062492 60.92997360 203.47979736
13.94666672 -7.65000010 234.14700317
-13.20235825 60.48086929 203.61999512
-13.42953777 60.12474442 203.38000488
-13.78194523 59.01887131 203.48625183
-14.10635662 58.74114990 203.41999817
-14.34457302 58.15582657 203.46055603
-14.57810879 57.53478622 203.46980286
-14.80328083 57.44181824 203.41999817
-15.00222969 56.76251221 203.47244263
-15.17463779 56.13149261 203.46882629
-15.43225193 55.80804825 203.47000122
-15.85360432 54.62326813 203.45321655
-16.42471886 53.21875381 203.49417114
-17.09508896 51.14363480 203.45333862
-17.33655548 50.54045868 203.38099670
-17.49205399 50.23109818 203.47000122
-17.58970833 49.74314117 203.40083313
19.65332603 19.58261490 214.41999817
-18.26597786 47.56792450 203.40240479
-18.37557602 46.86904526 203.52137756
-18.76628876 45.54346085 203.38499451
-20.22391319 39.28144455 203.41366577
-22.97248459 -9.20087337 203.61999512
-18.22921371 47.99840927 203.32000732
-9.28583813 66.39798737 202.72000122
-9.53751183 65.87243652 202.69944763
-9.89719772 65.56592560 202.64500427
-10.18131447 65.13430786 202.71937561
-12.24984264 62.32128906 202.72033691
-12.80802822 61.58485031 202.69400024
15.74139881 63.67938995 161.48666382
-13.10140038 60.98209381 202.74400330
-13.52967644 60.21915436 202.75000000
-13.74044991 59.59386826 202.74372864
-14.21953106 58.80147171 202.76022339
-14.92190742 57.35157394 202.74230957
-15.55767918 55.97605896 202.60749817
-16.15174294 54.54344559 202.63429260
3.79999995 73.78575134 178.86999512
-17.33074379 51.10146713 202.68330383
2.02999997 30.35000038 249.14599609
-17.59310913 50.42458725 202.69912720
17.42608070 49.72824097 199.30766296
-17.83192062 49.72243500 202.72000122
-17.98433876 49.04971695 202.79557800
-18.38945580 47.61530685 202.71463013
-18.59832764 46.87527847 202.69549561
-18.77666664 46.28611374 202.75019836
-20.21526337 39.97332382 202.82099915
-21.63605309 32.31336594 203.02000427
-23.71502495 6.35649538 202.99525452
-23.71670532 5.66050100 203.02299500
22.12708092 53.12221146 164.91999817
-23.71070480 4.90166426 203.02000427
-23.70580673 4.17308807 203.01600647
-23.69997215 3.59905648 203.03775024
-23.71135521 1.43669605 202.93515015
-10.56063938 64.93714905 202.57000732
-11.28754520 64.24983978 202.52000427
-11.99800491 62.83919144 202.53999329
13.51798344 51.00306320 212.49549866
-14.77146053 57.97568512 202.52000427
-16.79944229 52.93259811 202.57000732
-15.37815857 56.60248184 202.41999817
-9.98083687 65.71418762 201.97000122
-10.69741249 64.95169830 201.97125244
-11.38025284 64.26047516 201.97000122
22.69561386 51.79524612 164.91999817
-11.59307575 63.70385361 201.95750427
11.73496723 67.45497894 159.97000122
-12.98074436 61.61549759 201.96878052
-13.28229332 61.29484558 201.97000122
-13.46794987 60.83171844 201.97000122
-13.81828403 59.70389938 202.11599731
-14.08706665 59.48076248 201.92999268
6.59000015 70.63680267 191.44000244
-14.34689713 58.88767624 202.01750183
-14.85264874 58.04478455 201.96200562
-15.28536606 56.88166046 202.01300049
-15.50119495 56.58409882 201.91999817
3.72499990 72.59100342 190.04499817
-15.64473057 56.05769730 201.99412537
-3.97000003 31.85000038 247.83799744
-16.51414871 53.91005707 201.97775269
-16.84611130 53.19139862 201.97000122
-17.17307854 51.94023514 201.95933533
-17.59440804 50.96984863 201.97000122
-18.33892632 48.32814407 201.91583252
-18.54883003 47.63903046 201.92083740
-19.01961708 46.15837479 202.00000000
-21.53171539 33.68508148 202.22966003
-5.19999981 71.86274719 159.36999512
-22.26364517 28.74520302 202.16667175
-23.74146461 -3.55285811 202.11999512
-23.71282578 -4.21789217 202.11999512
-22.32972527 -18.32891464 202.11999512
-16.11425591 55.21726227 201.82000732
-10.07551670 65.78268433 201.33464050
-11.67176437 63.88631439 201.35716248
11.77999973 2.09999990 240.59599304
-11.96280670 63.49736786 201.29499817
-5.94999981 72.05750275 191.47000122
-12.45535946 62.48733521 201.31820679
-12.78136063 62.22000885 201.28016663
-13.36608601 61.37863541 201.36999512
-13.51854801 60.92435074 201.33328247
-13.75699806 60.35035706 201.40057373
-14.18526268 59.55717850 201.33450317
-17.40140533 62.55125427 176.32000732
-14.48164082 58.87896347 201.35920715
-14.78843117 58.55834198 201.36999512
-15.18695641 57.43894958 201.31399536
-15.55605030 56.66638947 201.39143372
-15.91916847 55.39848709 201.37750244
-16.17743683 55.25277328 201.32000732
-7.30000019 72.86475372 178.86999512
-25.21754837 50.31983948 150.22000122
-16.61026001 53.98743820 201.30560303
-17.29881859 51.87791061 201.40400696
-17.51362038 51.66687775 201.32000732
-18.05255508 49.80401230 201.26960754
-18.32384300 49.01432419 201.31365967
-18.48320198 48.37455750 201.38819885
-18.70951843 47.63602829 201.37316895
-19.10688019 46.19953537 201.36083984
-21.53075218 36.34359741 201.54299927
-22.25188065 30.18703461 201.42050171
-22.99645042 23.80729294 201.51939392
-23.70759964 16.10108948 201.36549377
-23.72881317 15.34767056 201.50349426
-9.78317547 66.49314117 201.22000122
12.01891518 58.63224792 206.15625000
-18.22496986 49.69122314 201.22000122
-9.43241692 66.99857330 200.57714844
1.77999997 -15.43124962 254.67124939
-9.83806610 66.42815399 200.61999512
-10.23480797 65.90000916 200.61268616
-10.89584923 65.21400452 200.65153503
-11.33751297 64.94495392 200.50000000
-12.02997303 63.68783569 200.61999512
-12.31325817 63.10829926 200.59556580
-12.65438271 62.78825378 200.61999512
-13.71571064 60.90101242 200.61050415
-34.23033142 -3.45845938 158.91999817
-15.10645294 58.13819122 200.67178345
-15.51100922 57.30692673 200.58250427
-15.89207458 56.18889618 200.69216919
-16.73770714 53.98509598 200.68220520
-17.12835312 53.15504837 200.63513184
-4.59999990 73.51999664 185.91999817
-17.61474037 51.79372025 200.57810974
-17.84975052 51.11495972 200.56199646
-4.62799978 69.54039764 202.89680481
-32.11537552 -10.66458416 165.82000732
-18.46529388 49.02073669 200.65925598
-18.65171432 48.31642532 200.59800720
-18.95173454 47.61784363 200.55999756
-20.10135841 42.79487610 200.70832825
-20.78493500 39.22629166 200.88966370
-21.54884338 37.31193161 200.70320129
-22.27910423 30.99710083 200.88150024
-23.69851685 18.22027588 200.72566223
-22.31275368 -20.04294205 200.91999817
2.15243316 24.99198151 251.61999512
-0.31798241 61.01237488 226.60330200
-17.47932625 52.33969116 200.47000122
-18.24512291 50.13563919 200.47000122
-11.88010120 64.13529205 200.32000732
-15.37603664 57.87315369 200.32000732
-9.45736790 67.28057861 199.86999512
-9.84646225 67.05139923 199.82000732
-10.04394436 66.47270966 199.88667297
-10.67858601 65.74520111 199.82325745
-11.68397141 64.44728851 199.83934021
-11.94511986 64.17057800 199.82000732
-12.48980427 63.08315277 199.84324646
-12.76476765 62.92203903 199.82000732
14.42699146 60.18647385 192.97000122
-13.58735657 61.61408615 199.84219360
-14.00142097 60.74118042 199.86999512
-14.50553417 59.62126923 199.87716675
-15.00807476 58.79688263 199.86999512
-15.58008003 57.43577957 199.89971924
-15.86075974 56.73445511 199.85511780
-16.45254517 55.29809570 199.89988708
-16.63480568 54.66604996 199.87449646
-9.39999962 69.87750244 190.11999512
-16.87899208 54.49707413 199.86999512
-17.09647560 53.89191818 199.83999634
10.06922054 69.20703125 181.72000122
-17.24509048 53.25791168 199.89480591
-10.44999981 70.90049744 176.16999817
-17.31123352 52.73838806 199.95449829
-17.55675507 52.55854034 199.82000732
-17.68995476 51.94611359 199.85255432
-18.29868698 50.40133286 199.86999512
-18.61989594 49.05862427 199.89332581
-18.75780296 48.33240128 200.02949524
-18.93667221 48.28160477 199.79499817
4.72048569 55.52845001 227.22444153
-19.25662041 46.87449265 199.90800476
-26.58403206 47.44368362 155.16999817
-19.41366005 46.32322311 199.96533203
-21.65514565 37.42362595 200.02000427
-30.71742630 16.15102577 171.52000427
-22.97910690 27.34244347 199.87675476
-23.72457123 20.36622047 199.93824768
-8.80000019 67.08975220 201.97000122
-24.42488289 9.08066559 199.82000732
-24.40225410 7.71453476 200.02000427
-24.44574165 5.63670158 200.02000427
7.80931520 48.09575272 230.68550110
-24.42346764 3.49310756 200.02000427
-24.43725586 2.23410392 199.86999512
-24.40225410 1.35057390 200.02000427
-24.40861893 0.72054183 200.02000427
-23.74888802 -10.97005463 200.02000427
-16.06970787 56.44550705 199.72000122
-18.16133118 50.90037537 199.72000122
-10.06303596 66.56913757 199.28666687
-11.96668720 64.39106750 199.27000427
18.27206993 45.51686096 201.42233276
-13.16722775 62.46001053 199.32000732
-13.43759918 62.26185989 199.17999268
-13.83101177 61.10302353 199.34100342
14.31334591 62.34635162 187.29142761
-14.57641220 59.58475113 199.36219788
-15.03604507 58.87207031 199.28091431
-15.49695683 58.07395554 199.27000427
-16.15021324 56.50207901 199.22000122
-18.21999931 -34.15000153 205.26800537
-16.31304550 56.02756119 199.25170898
-16.78141212 55.03588867 199.27000427
-17.28708458 53.35616302 199.20300293
-17.89837456 51.73363495 199.31399536
-18.01468468 51.07245255 199.26567078
32.29003143 28.40094376 153.07000732
-18.20375633 51.08422089 199.22000122
21.80222321 18.76166344 206.61999512
-18.60769463 49.73506165 199.19566345
-18.67249870 49.12779617 199.30125427
-18.90732765 48.81794357 199.22000122
0.34999999 72.59100342 195.07000732
-19.07402802 48.20682907 199.27000427
-27.95546722 39.48130798 165.82000732
-19.63564873 46.22286224 199.27000427
-22.28122711 33.05988312 199.43249512
-24.38952637 12.58084393 199.41999817
-24.44574165 11.15213490 199.41999817
-24.45528793 -1.77837360 199.41999817
-24.43831825 -2.85600424 199.41999817
-24.40437698 -3.52634144 199.41999817
-26.08994484 47.64680862 159.97000122
-9.89772701 67.03195190 199.11999512
-11.16733742 65.54384613 199.11999512
35.11138535 12.55468082 152.91999817
-9.81817722 67.58879852 198.82000732
-0.40000001 74.07749939 186.66999817
-9.96101379 67.14116669 198.52000427
-10.29967880 66.56909943 198.54727173
4.59285736 66.73114014 148.03428650
-11.62993240 65.25644684 198.61000061
-12.47551060 63.76150894 198.56285095
-0.40000001 66.83100128 218.02000427
-12.71971989 63.53241348 198.46000671
-12.98675251 63.01210403 198.54039001
-13.53042698 62.30628967 198.52000427
-13.76457024 61.74056244 198.60612488
-14.17724609 60.90269089 198.55407715
-14.96787453 59.51325989 198.54727173
-15.63239098 58.10945129 198.57054138
-16.22065163 56.75936127 198.49000549
-16.87920380 55.30338669 198.46000671
-17.63406181 53.14985657 198.49656677
-17.81194115 52.51628113 198.53250122
-18.00359344 51.90142441 198.59750366
-18.32780647 51.13677216 198.51217651
-19.50406456 46.97931290 198.64633179
-19.65770912 46.88132095 198.39999390
-20.83437347 41.49206543 198.64799500
-22.98334885 29.37701797 198.70599365
-23.70737267 23.89850998 198.60159302
-24.42771149 14.74034786 198.82000732
-24.44043922 14.32881165 198.82000732
-24.45528793 -5.59675026 198.82000732
-15.49801636 58.63268661 198.29499817
-18.91015625 49.52788162 198.36999512
-13.40320873 62.68855286 198.22000122
-14.77676392 60.03159714 198.22000122
-13.42022038 66.26794434 155.32000732
-17.37154198 63.24695206 172.52000427
-10.11041260 67.18383026 197.75332642
7.53000021 -24.64999962 240.80299377
-10.41263390 66.65957642 197.82000732
-23.04657173 54.03036499 162.88000488
-10.71323299 66.38577271 197.74856567
-11.44463253 65.68617249 197.73249817
-12.26015759 64.38175964 197.78343201
-13.02667046 63.06412888 197.85833740
-13.36396503 62.86143875 197.77000427
-13.65009689 62.35882187 197.77000427
-14.31507683 60.89464188 197.79124451
-14.64125729 60.39987183 197.77000427
-14.84676743 60.10160065 197.77000427
-15.10054207 59.55900192 197.74856567
-15.19552422 59.05550003 197.92875671
-15.54938316 58.75994873 197.74856567
-15.84833336 58.07849121 197.77000427
-15.92977715 57.50657272 197.82899475
-16.17522240 57.24176407 197.74000549
-16.56659126 56.03209686 197.81500244
-17.03043365 55.28181076 197.74856567
-17.24682999 54.66107559 197.79116821
-18.02670670 52.03398514 197.85566711
-18.30897331 51.71893311 197.77000427
28.76439667 28.69368553 170.32000732
-19.29237938 48.36917877 197.78871155
-19.76425743 46.85988998 197.75317383
-19.89923286 46.17620087 197.81832886
-20.10630989 45.48425674 197.75433350
-20.79129791 42.22260284 197.93966675
-21.59221268 39.34059143 197.82000732
-23.72065544 25.75667191 197.74650574
-24.44256020 17.72504616 197.91999817
-23.70646286 -16.10364914 197.91999817
-9.89984989 67.68516541 197.16999817
-13.46406078 62.91004562 197.16999817
-13.78291035 62.42220688 197.16999817
-14.17306519 61.63901901 197.12812805
-15.20565319 59.56025696 197.20228577
-15.46301079 59.23292160 197.16999817
-15.60796070 58.84553909 197.11999512
-15.86159325 58.18495941 197.14512634
-16.23235321 57.44640350 197.19142151
-16.48106003 56.73972702 197.20143127
-16.88535690 55.98836136 197.09500122
-17.36958504 54.75830841 197.16999817
8.78708267 55.36816025 220.23246765
-17.49311447 54.47480011 197.16999817
-19.60594940 48.10235214 197.02000427
-17.60620117 53.92422104 197.14071655
-17.89766693 53.19591904 197.15814209
-25.92960548 48.91057587 148.86999512
-18.34288979 51.81856918 197.15228271
-18.53943253 51.14624023 197.18200684
-18.76734924 50.46510696 197.08125305
-20.13987350 45.65205765 197.11766052
-20.30386353 45.54757690 197.11999512
-24.39164925 20.43185043 197.32000732
-25.11077690 5.02894354 197.32000732
-25.08531952 3.51856327 197.32000732
27.36856842 39.17724991 164.61999512
-25.08885574 2.10788536 197.22000122
-10.45669556 66.95452881 197.02000427
-12.63953400 64.25833130 197.02000427
-10.57495880 67.17885590 196.34500122
-10.88778877 66.61191559 196.44306946
11.28365612 63.39742661 198.36999512
-11.58558559 65.93029785 196.50181580
-12.24555969 65.08080292 196.41999817
-12.45872974 64.54412842 196.43167114
-12.71236610 64.33116150 196.41999817
-13.31835651 63.45222855 196.41999817
-13.62139988 62.98255539 196.37384033
-33.50766754 16.89065933 158.82000732
-13.74885368 62.42621231 196.69732666
-14.59225082 60.91529465 196.57466125
-15.05976772 60.23537445 196.38362122
-15.96364021 58.25505066 196.51232910
-16.40002060 57.43214798 196.41999817
-16.63312149 56.77772903 196.43811035
-17.33746529 54.85543823 196.67550659
-17.62250137 54.65555573 196.29142761
-17.79583931 53.91093826 196.43400574
-18.01051521 53.24688721 196.51142883
2.77999997 27.60000038 249.92300415
-18.31218719 52.51501465 196.46286011
-18.53590202 51.86105347 196.40072632
-18.71817970 51.20470047 196.43185425
-19.05864906 50.40368271 196.46286011
-15.25000000 60.54000092 194.61999512
-19.68486214 48.35097122 196.36000061
-19.86309624 47.61480331 196.35412598
10.09465027 63.02321625 203.47073364
-20.02129936 46.92509079 196.48100281
-20.47533798 45.50691605 196.41999817
-13.72000027 56.84999847 207.13699341
-22.24101830 38.00051117 196.44866943
15.81375694 63.74243546 167.02000427
-22.99033356 33.01329422 196.50900269
-23.72185135 27.99630165 196.44766235
-34.94309616 -6.56407213 155.32000732
-24.42346764 21.73646164 196.72000122
-25.10582542 11.88292980 196.61999512
-23.68737030 -18.24406242 196.72000122
-11.34048271 66.32521057 196.24000549
-16.85883904 56.52753067 196.22000122
-20.35954857 46.09823608 196.27000427
13.91303349 54.78380585 205.57000732
-19.56776619 48.91269684 196.11999512
-10.10928822 67.83053589 195.66999817
-10.70741653 67.13291931 195.66999817
-11.98648548 65.70889282 195.66999817
-12.33337975 65.14402771 195.69142151
-13.16361523 63.83115005 195.69999695
-14.20598221 62.28891373 195.66499329
-15.38876534 60.00720215 195.66999817
-15.91159439 58.93728638 195.66999817
-16.09198189 58.58909988 195.66999817
-16.24319649 58.21051025 195.66999817
-16.52022743 57.45782471 195.68544006
-17.25794411 55.46279526 195.71585083
-17.55145073 55.16953278 195.66999817
-14.72000027 -44.65000153 201.39199829
13.93212509 60.42439651 194.39500427
-17.95342255 53.91624069 195.69839478
-18.23769760 53.23948288 195.61999512
-18.43935013 52.48035049 195.66122437
-18.99872208 51.10136795 195.66999817
-19.13445854 50.38887024 195.71383667
-19.36881256 49.76928711 195.67739868
-16.21944809 65.11588287 168.36999512
-19.37479019 49.32439041 195.94050598
-19.82860565 48.23489761 195.66867065
-20.09927940 47.00145340 195.75000000
-20.47038841 46.20907593 195.66999817
0.40500000 49.72499847 240.40174866
-20.77715683 44.24890137 195.78466797
5.30000019 73.03399658 179.61999512
-25.10865402 15.42129135 195.82000732
-12.58225822 64.83744812 195.52000427
-14.00778580 62.86886215 195.52000427
-10.47000027 -7.65000010 243.16400146
-10.82268047 67.17079163 195.07000732
-15.78117847 63.78756714 183.08666992
-11.07684898 66.76350403 195.22000122
-11.47369003 66.46629333 195.02000427
-12.05012512 65.83253479 195.07000732
-12.64059448 64.89578247 195.07000732
-12.94697380 64.39421844 195.07000732
-13.49419117 63.62384415 195.07000732
-13.80411625 63.14828873 195.07000732
-14.34782887 62.32664108 195.03710938
-14.74388313 61.48364258 195.07000732
-14.97885418 60.88769150 195.03359985
-15.27221298 60.37178040 195.11999512
-16.15782738 58.75234985 195.03999329
-16.42759705 58.03699112 195.08911133
-17.02049446 56.65809631 195.07000732
-17.27156258 56.04093170 195.05886841
-17.62676239 55.20266724 195.06372070
23.14999962 51.72449875 161.47000122
-17.87294769 54.56681824 194.99116516
-17.98121834 53.95875168 195.08749390
-18.35606766 53.24243164 195.09143066
-18.80515099 51.81380463 195.04025269
-18.94621849 51.68526459 195.07000732
-32.81328964 28.21709633 153.82000732
-19.06410027 51.13420105 195.02684021
-19.32525063 50.41094971 195.00416565
-19.90312195 48.34430313 195.03283691
-20.08419228 47.59006500 195.07519531
-20.57857513 46.31726074 195.07000732
-20.64668083 45.65845490 195.10884094
-20.81694221 44.88634872 195.07220459
-21.52969170 41.93738556 195.04649353
-22.27830124 39.26581573 195.01033020
-24.42771149 25.34695053 195.22000122
-25.14683914 17.58079529 195.22000122
-25.14047432 -8.30567646 195.22000122
-10.14371872 67.95105743 195.07000732
-10.67306995 67.59516907 194.91999817
-17.49311447 55.74759293 194.91999817
-18.23981857 53.73657990 194.91999817
-20.28052902 47.50413895 194.91999817
-1.80333328 -20.31666756 248.48500061
-10.32056713 67.90404510 194.36285400
-11.24158382 66.99695587 194.24499512
-11.56384659 66.54699707 194.34307861
-12.20423412 65.81962585 194.32000732
-12.71491623 65.05766296 194.22000122
-13.04198742 64.45487976 194.36614990
-13.60778427 63.71870041 194.29856873
-14.49154854 62.34945297 194.35749817
-15.10007477 60.94715881 194.31553650
-15.58074760 60.19257736 194.32000732
-16.49007225 58.12262344 194.34974670
-17.37924385 56.14874268 194.38000488
-17.54561806 55.90615845 194.24499512
-17.69824028 55.40998840 194.32699585
-17.98505592 54.77109146 194.32000732
-18.04339218 54.17496872 194.42100525
-18.46661949 53.20404434 194.34912109
-18.74048996 52.54776764 194.33399963
-19.04777718 51.83985519 194.28250122
-19.72615814 49.70748520 194.32000732
13.88804626 54.65505600 206.18699646
-19.89740753 49.02980804 194.30599976
-20.13845825 47.69108200 194.44366455
-20.36007881 47.65439987 194.22000122
-20.69221497 46.17525482 194.36755371
-20.99700546 45.35683441 194.24499512
-22.32123947 39.36251450 194.47000122
-23.72555351 31.64514923 194.61999512
-24.38740540 26.72085762 194.52000427
-25.11289787 19.66817474 194.61999512
-25.14471626 19.06359863 194.61999512
-25.80232620 4.23556948 194.47000122
11.17779732 66.75312805 188.08000183
-25.79949760 3.52563453 194.52000427
-25.77262878 2.08455086 194.47000122
-13.29714298 64.27954102 194.02000427
-16.08455849 59.43020248 194.02000427
-9.22000027 -33.40000153 230.66299438
-10.75517750 67.73768616 193.60000610
-11.97020531 66.31471252 193.57000732
-13.47374249 64.24401093 193.57000732
-14.60943699 62.42621231 193.57000732
-15.19562435 61.05971527 193.51019287
-15.72467327 60.22642136 193.54856873
-15.88704967 59.73150253 193.63850403
-27.61560440 44.95104218 155.16999817
-16.79732132 58.02164841 193.57000732
1.85000002 73.93499756 185.61999512
-17.66340065 55.96920776 193.54856873
-17.89612770 55.29456329 193.61325073
-18.25237656 54.48512268 193.53999329
-18.40725899 53.93066788 193.58819580
-18.76030350 52.74941635 193.59182739
-19.41274834 51.11683655 193.54866028
-19.66163445 50.49148941 193.57000732
-19.83155823 49.79262161 193.54319763
-20.02058411 49.13018417 193.55816650
-20.06056404 48.62376785 193.62150574
-20.85337448 46.23722458 193.56425476
-21.50403404 43.45257568 193.63732910
-24.33867455 28.16664505 193.78633118
-25.14471626 21.82131577 193.72000122
-25.83096504 12.53735638 193.57000732
-25.82141876 11.89141464 193.72000122
-25.84475327 -3.57088923 193.72000122
-25.84475327 -4.20728540 193.72000122
-25.77368927 -4.91474581 193.72000122
-24.45104599 -18.32891464 193.72000122
-14.13930702 63.42464828 193.41999817
-20.97420120 46.07649231 193.41999817
-10.90706444 67.80266571 192.94000244
-11.04032230 67.49026489 193.02000427
-12.09628296 66.39631653 192.93249512
-12.46471977 65.88771057 193.00000000
29.44958305 -22.38134384 172.41999817
-12.68973827 65.65203857 192.91999817
-12.93089104 65.14970398 192.99142456
-13.46900082 64.40567780 192.97000122
-14.06463718 63.53062057 192.97000122
-15.53241253 60.84406662 192.94857788
-15.85575867 60.22813034 192.97000122
-16.53199387 58.89215088 192.97000122
-16.74668121 58.30087662 193.02000427
-17.51220703 56.61521149 192.97000122
20.27381134 49.90158463 185.16999817
-17.74340820 56.05726624 192.97000122
-17.96323776 55.41650009 192.94566345
-18.30367088 54.69252777 192.97000122
-18.52218819 53.97675323 192.97467041
-18.75530052 53.33282089 193.02000427
-18.91015625 52.92199326 192.97000122
-19.08940887 52.46484756 192.97000122
-19.28438377 51.90931320 192.94000244
-19.42395401 51.35876083 192.99000549
-20.99117279 51.60889435 185.02000427
-19.59746361 51.06371689 192.97000122
-19.79439354 50.41211700 192.97000122
-20.07594490 49.03877640 192.89175415
-20.27628708 48.77268982 192.97000122
-20.42106628 48.28107452 192.97000122
3.95000005 69.60600281 152.91999817
-23.03101730 37.89474487 192.97625732
11.53798008 67.12461090 157.28666687
-25.13411140 23.08350182 193.11999512
-25.83626747 14.02758408 193.11999512
-16.71999931 54.84999847 198.63499451
-25.81081200 -6.36254692 193.11999512
-23.74676704 -23.27583313 193.11999512
-14.66539478 62.67794418 192.82000732
-18.19102859 55.17271423 192.82000732
-13.07659054 65.13871765 192.24726868
-14.13405132 63.66636658 192.22000122
-14.50685978 63.09233475 192.22000122
-14.95565987 62.28543091 192.22000122
-16.15339470 59.98321152 192.11999512
-16.66833878 58.82401276 192.25877380
-17.62514305 56.66139603 192.22000122
-17.91845894 55.91426468 192.19219971
-18.11147881 55.51742935 192.36999512
-18.23861694 55.27045059 192.11999512
-19.18479538 52.57508850 192.22000122
-19.90360451 50.33404922 192.22850037
-20.35831070 49.06684494 192.22000122
-13.22000027 47.72499847 220.29800415
-20.55700874 48.41701508 192.22000122
-20.83572769 47.07102966 192.41233826
-21.06244850 46.75870895 192.16000366
17.53000069 -33.52500153 208.98649597
-21.51469612 44.12637329 192.43075562
-22.25728226 41.48147964 192.22366333
7.53000021 -8.39999962 247.76199341
-22.94779587 38.71088409 192.22760010
-23.70062828 35.12040329 192.29499817
-23.71706772 34.39438248 192.52000427
-25.12562561 24.63064957 192.41999817
-25.82990456 16.77893639 192.52000427
-25.85536003 16.16799736 192.52000427
-25.83096504 -8.25158215 192.52000427
-25.79525566 -9.20653057 192.41999817
-25.12456512 -15.32194328 192.52000427
-20.25719452 49.60212708 191.91999817
-10.94880104 68.07641602 191.50000000
-11.35321045 67.80787659 191.38000488
-11.60085297 67.39221191 191.52000427
11.11710930 51.20315170 219.61799622
-11.98333836 67.06695557 191.41999817
-12.25121307 66.58943939 191.47000122
-12.69150639 66.21949005 191.47000122
-12.87691975 65.74814606 191.47000122
-13.16234207 65.25380707 191.50000000
-14.00142097 64.13529205 191.47000122
-14.79108334 63.01576614 191.47000122
-15.80828285 60.87041855 191.48666382
-16.51504707 59.56735611 191.49142456
-17.53554153 57.27494049 191.47000122
-17.74728966 56.73720551 191.47000122
-18.60497475 54.58227539 191.44999695
-18.69838333 54.09813690 191.59933472
-18.91864204 53.77900696 191.47000122
-19.13503838 53.20378113 191.41999817
-20.08283806 49.90743637 191.66850281
-20.30457115 49.79092407 191.41999817
-20.52554131 49.02194595 191.47000122
-20.64750290 48.27364349 191.48071289
-20.81156921 47.58874130 191.48399353
-21.00814247 47.38322449 191.47000122
-21.27114677 46.24125290 191.46583557
-21.43090057 45.62698746 191.54133606
-21.51969337 44.82477188 191.57466125
-24.43124580 31.57302475 191.52000427
-25.07717323 26.76693153 191.49125671
-26.47584534 5.54548502 191.61999512
-26.49157524 3.50045395 191.68833923
-26.51137733 1.33837640 191.47000122
-26.47442436 0.70795757 191.69267273
-26.48602295 -0.74614346 191.55439758
-25.82353973 -11.44098759 191.61999512
-16.76550102 59.26261902 191.32000732
29.45594788 5.62644863 178.72000122
-11.07779884 68.05916595 190.91999817
-11.39438438 67.80379486 190.84857178
-11.69981956 67.39772034 190.86999512
15.27999973 -16.14999962 228.03900146
-12.41529179 66.53598022 190.86999512
-13.17531109 65.42490387 190.86999512
-13.44638348 65.01158142 190.86999512
-14.06357574 64.16082001 190.82000732
-14.36995220 63.73584747 190.88667297
-14.91217327 62.93046188 190.84857178
-15.22577858 62.23175812 190.89143372
-16.30384064 60.19019318 190.83250427
-18.83447075 60.36951447 174.07000732
-16.59832573 59.60760880 190.89999390
-16.77822876 59.27534866 190.86999512
-17.01200867 58.74132156 190.86999512
-17.29508400 58.05471039 190.84857178
-17.83688736 56.73980331 190.86999512
-18.01293564 56.20917511 190.89724731
-18.69060326 54.65342331 190.81860352
-19.20025444 53.17881393 190.92114258
-19.75609970 51.84601593 190.83999634
-20.01972198 51.09309006 190.86999512
-20.14243889 50.48860168 190.90025330
-20.47250938 49.60530853 190.86999512
-21.04336548 47.58913803 190.82159424
-21.26800346 47.00669098 190.86999512
-21.41241074 46.35053635 190.82159424
-21.58832359 45.84208679 190.86999512
-21.71737099 45.40544891 190.82000732
-22.28440857 42.69210052 190.77000427
-25.75904274 21.27594566 191.05050659
-26.50236130 11.93596268 190.86999512
-26.53842545 10.48710060 191.02000427
-26.54160690 -2.87403560 191.02000427
-26.48751259 -3.56452537 191.02000427
-25.12880707 -18.28754997 191.02000427
-24.36831474 -22.65428734 191.02000427
-11.52244282 67.82555389 190.09272766
-13.03859997 65.88101196 190.14727783
-13.75770092 64.70755005 190.19500732
-14.11145401 64.35181427 190.11999512
-14.74176216 63.60284042 190.11999512
-15.00648403 63.03564835 190.11999512
-15.27342033 62.43292999 190.11999512
-16.15443420 60.74629593 190.05999756
-16.43272591 60.21643066 190.14308167
-16.74220085 59.57275391 190.17999268
-17.11327171 58.84308624 190.09272766
-17.52422714 57.90002441 190.11999512
-17.69578743 57.45372009 190.11999512
-17.97934914 56.77331924 190.14999390
-18.32358742 56.00697327 190.11999512
-12.39999962 68.79750061 178.86999512
-19.14942360 53.84520340 190.18666077
-25.78358841 49.25395584 155.16999817
-19.34889603 53.16671753 190.07879639
-19.39278984 52.78089142 190.42832947
-19.86784363 51.83410263 190.15429688
-20.82270622 48.46164322 190.22474670
-21.04632568 48.26993561 190.00000000
-21.19588470 47.60283279 190.11975098
-21.83050728 45.44787598 190.11999512
