-22.54999924 -2.32500005 44.04349899
18.00907516 -38.51527023 25.88549995
16.44302559 -23.97061157 40.27479935
23.95952415 -19.49675751 38.92224884
31.39310074 -8.87189198 37.62300110
-47.19775009 -28.95549965 22.82299995
30.44338989 37.66619492 13.36466694
-41.45666122 -18.50893021 24.81299973
44.28940964 -14.43144608 18.24442863
-0.10000000 -49.55049896 2.87299991
20.88755989 -42.97308350 14.25871468
24.41058159 -42.96324921 6.81050014
25.39399910 -36.75833511 22.26000023
31.93953323 -33.99261093 17.83633423
-43.41140747 -3.39835525 24.67300034
44.67854309 14.43558502 17.77300072
40.29618073 -12.31249428 26.71299934
-11.60000038 0.07500000 48.16025162
28.01837540 -28.42314720 29.85544395
37.21300125 6.55000019 32.57300186
-2.59999990 28.12500000 41.06150055
-1.14999998 -40.60300064 28.52300072
21.67900085 45.40000153 4.67299986
-3.45000005 1.52499998 49.34999847
40.28350067 -28.70000076 7.22300005
-23.75000000 -21.97500038 37.56200027
30.25048065 -14.89550495 36.67266846
16.90429878 -46.28976822 7.75633335
31.37400055 -36.74850082 12.69799995
-24.07357407 -33.83875656 27.28471375
38.88746262 -30.92951202 5.77299976
39.27996063 3.56271648 30.70633316
39.40731049 -25.34678841 17.27300072
41.16999817 -2.59999990 39.77299881
4.91320229 26.95040703 41.70360184
41.84385681 -17.87055397 20.73550034
23.44459915 -43.90467834 3.29800010
-48.40817642 4.62483168 12.22299957
6.78115416 -49.22170258 4.27299976
-33.47239304 23.03583908 29.26160049
38.90433502 -22.29700089 22.17900085
21.95585442 -31.87364960 31.31957054
4.81730700 -45.20676422 20.16049957
-4.12526751 -38.35627747 31.29587555
35.30199814 33.41650009 12.69799995
10.85000038 -45.06250000 17.87299919
-38.65673828 -26.90458679 16.75157166
-10.57548904 -48.68005753 1.87300003
34.96417618 -31.45841599 16.81442833
-29.75000000 4.72499990 39.52399826
22.86350441 -28.94704819 33.40328598
-7.15874910 44.35892868 22.57299995
-27.54246140 -19.87487793 36.26449966
22.81956863 44.63178635 4.80157137
42.99722672 14.05322266 21.30157089
18.28517532 -46.23737717 3.79299998
-41.88405609 -23.21643639 13.72299957
-21.67499924 -30.09650040 33.00500107
47.11461258 -3.97232270 16.27300072
-20.01896477 -18.47999573 41.43360138
-29.10471344 23.11997795 33.33399963
-19.64308357 -45.78147507 1.75157142
24.32200050 -39.20000076 19.22299957
44.09277725 12.14101791 20.37299919
16.38063622 -44.29729462 15.78014278
-19.29999924 -42.10900116 18.02300072
-5.84494448 -34.74298477 35.17300034
27.24600029 39.42366791 15.28699970
-4.05879307 -45.20203781 20.27300072
15.96525383 28.54688644 37.76657104
-45.16762924 -2.88504744 21.23966599
18.32500076 -43.70000076 16.07299995
42.30853653 -11.36583805 24.15299988
-19.29185677 34.45455551 36.34799957
17.89050102 -46.28482437 5.34800005
38.60853195 -12.48268890 28.96866608
22.44542694 -44.26123047 5.74800014
-13.57499981 -27.41449928 38.99449921
36.52263641 34.56316757 2.78966665
-25.53072739 -42.78433609 -0.12700000
33.34222031 -8.37897301 36.10633469
45.02158737 -18.41108894 11.73966694
26.75650024 -42.20000076 2.72300005
-14.59948730 -45.26119614 14.23728561
42.49193573 -18.94779587 18.26675034
-21.04999924 1.12500000 44.83399963
27.81100082 -39.20000076 13.67300034
-22.64699936 -4.93750000 43.85649872
-11.41011047 47.90200424 10.67300034
47.36832428 -4.86016035 15.28411102
35.31866837 -35.28933334 2.27300000
39.74851227 -27.76380730 12.26049995
31.12050056 -37.07400131 12.39799976
-27.07500076 -29.21450043 29.74250031
47.12068939 0.56634092 16.91300011
39.56335831 -30.47312546 1.77300000
29.87358093 -28.78059387 27.67225075
-16.25000000 21.22500038 49.67900085
8.93570900 -45.10903549 18.87299919
29.31868553 -29.29540062 27.70439911
23.44418716 -42.34059906 11.85633373
4.93897438 19.45772934 45.63966751
-26.43499947 33.59999847 36.32300186
50.05071640 2.59712458 2.30633330
-5.64250326 -47.90200424 11.83966637
35.89396286 -30.26149940 17.17900085
44.23448181 -15.37129211 17.68300056
18.24533272 -46.32466507 4.22300005
26.39632797 25.11960983 34.28274918
49.24456787 8.52040100 5.27299976
18.19669342 -46.32740021 4.70633316
-48.81984329 6.05528641 9.30633354
-23.01260376 -26.33415604 35.21322250
36.52583694 6.63059092 33.37300110
-28.09950638 41.62793350 3.81299996
26.57214928 -42.12471390 0.75633335
2.44285178 -39.36818314 30.26737595
36.83332443 -27.35363960 19.82649994
-48.53436661 9.51005173 7.74800014
37.87293625 3.95265818 45.33966827
14.51266003 -40.90139008 24.28171349
8.94999981 -2.47499990 48.56000137
21.41170883 -45.01550293 0.79799998
17.93156433 -46.49232483 1.73728573
20.16399956 -45.79999924 0.77300000
-22.46663857 36.93462753 25.59799957
36.23033524 -34.40066528 1.82299995
12.53551102 -45.09884262 16.85633278
-9.69999981 -47.64099884 9.92300034
15.44649696 47.12133408 8.80157185
-32.65102386 -37.44037247 3.83411121
-18.04999924 5.17500019 45.87950134
28.24025917 -38.26521683 15.12300014
19.28650093 -45.79999924 5.72300005
15.84899426 -44.37549973 16.21599960
-26.62980080 -8.92000008 40.84000015
16.94157791 -18.36997986 42.90999985
27.05671120 -32.03162766 26.88966751
-18.56104088 -43.37051773 15.79275036
21.98143196 -43.04174423 12.31299973
38.00543594 16.08954239 28.24699974
-45.88698578 5.87322903 19.27300072
46.29421997 -11.89159584 14.75300026
-27.01942253 -15.36779118 38.79800034
-31.72505379 -37.66474915 19.87299919
27.92833328 -39.22266769 13.22299957
45.57698059 -18.44272232 9.29800034
17.40531540 -46.32245636 6.26300001
17.38123894 -44.22706604 15.16466713
-40.16170502 26.69026184 13.80157185
11.96794796 -8.37277031 47.33566666
-30.10580635 34.63282013 20.33728600
35.59299850 -6.50000000 34.37300110
5.94999981 22.57500076 43.90999985
40.10950089 14.64999962 25.97299957
-42.04999924 -27.37500000 27.44899940
35.57261658 -25.04802322 24.40633392
37.73586273 -27.31117439 18.23349953
41.40909958 20.05591583 19.77855492
47.54211807 4.11952114 15.25077820
-16.10840034 -25.48181343 39.34028625
19.96154022 -41.53511429 18.83728600
20.18199921 -45.79999924 0.32300001
-47.00299454 -3.38160229 16.74799919
11.94999981 -6.97499990 47.62400055
-43.09999847 -29.92499924 28.34600067
24.28233337 -37.76900101 21.66300011
38.67679977 -20.28991127 24.12299919
26.38983727 -20.91877365 36.72857285
35.34867859 -26.91509056 22.76588821
-20.43538666 -39.66868973 22.27300072
24.92209435 -25.39028549 34.79499817
49.43379974 -0.39637876 8.28728580
28.36604309 -39.96152115 9.26585674
-41.76431274 1.57009614 27.33219910
-12.45976543 46.90546036 13.24800014
16.80121231 -39.21854019 25.70633316
17.33663368 -46.28926849 6.74300003
28.92244148 16.14911461 37.33620071
-26.68864632 42.63304901 2.30077767
38.07062912 -31.98951149 3.82299995
44.61061478 -22.38253975 2.82299995
22.44068146 -40.95722198 17.30157089
-10.12775898 -48.56996536 2.85299993
15.75727654 -45.75451660 12.10633373
21.34777832 45.58050537 3.27300000
38.90963745 -27.38283920 15.26675034
6.55000019 -33.07500076 36.45199966
18.96112633 26.61591911 37.80962372
2.95000005 19.99300003 45.62300110
28.38072014 -34.79942322 21.66474915
19.42338371 -45.93197250 0.26675001
26.24179268 16.62514114 39.07300186
-36.36750031 34.93075180 0.82300001
-13.57408047 -40.33327484 25.70149994
-16.14218903 -46.98884583 -0.13699999
44.57976151 12.04711533 19.25300026
23.92586708 -29.93044472 31.78462410
37.46286774 1.15123737 40.71300125
-39.97285080 -25.88742256 14.83549976
38.88550186 3.58961272 31.17300034
-29.77717400 -39.57170868 4.84800005
37.72078705 -25.40637207 20.74740028
-45.94312286 -5.89147949 18.78133392
3.97857141 29.11514282 40.34042740
36.32675171 -33.89210129 5.29300022
-36.65000153 -25.87500000 24.70700073
-6.08295584 49.45102692 7.74300003
22.38873100 -43.73152161 8.80633354
23.40611458 -19.45287895 39.31499863
17.48200607 39.67115021 25.31744385
-15.04650116 42.47982788 22.29439926
50.08209610 -2.45393085 0.28966665
-20.45000076 3.82500005 45.08300018
17.46401978 41.71722412 21.80472755
19.91875839 -43.73744583 13.73966694
-37.57375717 -0.87274164 32.76649857
30.39056396 -29.92968559 25.77860069
26.90293884 -41.61075974 5.32299995
16.37710762 -36.35041809 29.76749992
32.78099442 35.44895172 13.73966694
44.27807999 -9.36758041 21.17300034
-26.57555771 -39.75863266 13.76299953
-22.10000038 0.67500001 44.43500137
44.08941269 -23.00057793 4.82299995
-15.58173752 -31.86515808 34.70987320
25.34277153 -42.95261765 1.28966665
-17.08766365 35.15295029 31.36300087
-8.50588989 30.47957230 38.67024994
28.21599960 -39.20000076 12.77299976
-33.98353577 -20.98637962 29.87199974
-37.04253006 -5.93676805 32.79119873
34.37446594 -14.34802055 33.20316696
-48.10667038 -13.35040283 3.23966670
19.42449951 -43.70000076 14.72299957
19.40953255 -45.92574692 1.28728569
41.24294662 -8.84225273 26.70633316
22.38212204 -41.25374603 16.73299980
-32.74644089 27.22046852 26.37719917
-44.29980087 14.19192791 18.39800072
-44.78719330 18.08187485 13.29800034
19.87111282 -40.28374100 21.68866730
20.42635536 -33.39179611 30.75737572
-21.19899940 0.10000000 45.12300110
-31.85000038 28.13450050 26.64949989
-1.59022224 -48.37218094 11.30633354
21.45862007 -44.89232635 3.28728580
41.46967697 -8.94531345 26.28966713
-24.64999962 15.07499981 40.49150085
40.73400116 29.53000069 2.27300000
45.42825317 -12.36675930 16.78411102
-33.95000076 -21.37500000 29.64800072
32.31658936 9.63101673 36.73649979
-46.88457870 -15.10319805 9.19799995
26.93793488 38.19850540 18.31999969
19.40302658 -45.92603683 1.75633335
8.00000000 -29.63500023 39.02299881
-42.15762329 0.12764032 26.85899925
22.66900063 -31.70000076 31.07299995
35.56253052 -16.40729332 30.86042786
45.73311234 10.06469917 17.67300034
38.39379883 32.06001282 5.76744461
29.82318115 21.96145058 33.64799881
19.39791870 -45.87971878 2.30633330
16.41543961 -41.21613312 22.72933388
28.40210724 -40.83446121 3.80157137
-14.64000034 1.58000004 47.31340027
20.32162666 27.97914696 36.12300110
38.96134186 -30.96642876 4.77855539
42.46823120 20.09647560 17.32299995
-40.69989395 7.62509394 27.99799919
13.07660675 48.26915741 5.88549995
-25.73500061 28.89999962 45.12300110
47.15499878 -13.39999962 9.77299976
-4.84999990 -3.37500000 49.26200104
-49.02551651 10.61440849 1.73549998
38.54909134 -21.46164513 23.39500046
39.85916519 -8.44640923 28.78728485
20.42160606 -45.19670486 5.24300003
18.38142776 -33.99079895 31.39487457
19.37761116 -45.89032745 2.78728580
10.44999981 8.62500000 47.61199951
45.81951141 5.61351156 19.23966599
32.93505859 37.19058990 7.80871439
42.88929367 17.60350990 18.80633354
39.25995636 -20.33337784 23.26471519
25.75200081 -42.76425171 1.29799998
-4.60327482 -28.99461746 39.95550156
12.36734867 -44.98071289 17.34833336
-2.60143328 43.38827515 25.24460030
19.35941124 -45.86563873 3.25633335
-31.75782967 34.29062271 18.39800072
9.89604187 -43.99148560 20.83966637
48.94718933 -7.43243122 7.74800014
34.65106201 -28.14567757 22.27300072
-10.58558464 -48.56254196 1.71466672
27.82299995 39.43066788 14.22999954
19.04535675 -23.45645332 39.42240143
-31.89999962 -37.10200119 17.27300072
-35.23216248 27.75128746 22.39349937
44.37203598 10.13062477 20.74442863
17.82811737 -27.80550194 37.22460175
-40.23374939 0.61250001 29.49850082
-23.45402527 25.15108109 40.27299881
41.40322495 14.05278873 24.25077820
17.47255516 46.14580536 9.82855511
24.28371429 -42.77779388 8.29300022
26.34752274 11.13066101 40.80366516
15.90853596 -43.25916672 18.78637505
26.28505135 -41.27948380 9.79300022
10.34603691 -40.31929398 27.24659920
46.80329895 -7.89183235 15.78728580
22.43393898 -43.30319977 10.33300018
-7.60002327 -43.28234863 23.22983360
23.04999924 39.33399963 21.02300072
-18.14074516 45.70669937 10.78549957
23.55204773 -28.95721626 32.89683151
17.90957451 -45.87282944 7.73549986
19.98351860 -31.04434776 33.39640045
42.33572006 -4.89214325 37.81299973
31.72500038 -18.73100090 33.63050079
30.43121147 -18.44808006 34.84199905
33.79722977 -7.35143566 46.72299957
19.22906113 -42.28922653 18.07299995
19.69000053 -42.20000076 18.17300034
-23.75000000 -14.47500038 41.04499817
-17.40402603 34.75248718 42.25633240
39.89920807 -6.24092436 41.77299881
18.15271568 -15.48221302 43.62300110
2.44941783 -49.73506165 -0.22700000
31.39509201 -29.80264282 24.75916672
49.52051926 -7.37960672 2.74799991
-32.11941528 -13.41983128 35.46333313
-25.70686722 -37.58626175 19.87299919
8.75398159 -47.18382263 13.27299976
18.34300041 -16.70000076 43.07300186
31.48984528 -38.52415848 4.28966665
7.29133177 -31.68651581 37.57300186
-34.03609848 -35.87069321 6.26049995
43.38716125 1.57587492 24.78966713
40.79058075 26.02992058 13.25633335
36.04496765 -28.96966934 18.84799957
42.45721054 7.61926031 25.24799919
44.24534225 -0.81235445 23.27300072
29.46599388 -39.37567520 8.29522228
47.13700104 12.69999981 10.97299957
-39.80091858 -30.04284668 -0.22700000
-33.63743591 8.60219860 35.81650162
10.91170216 -44.97130585 18.29844475
26.95000076 -3.82500005 42.12500000
40.44074631 14.03281689 25.75871468
24.96135902 10.54642105 41.78160095
41.34999847 24.87400055 14.12300014
15.28388786 -45.24425125 14.15633297
3.26584125 50.24914169 -0.55199999
35.02804184 -34.09330368 10.34799957
15.31153393 -20.28547096 42.63325119
37.04021072 -21.92115021 25.34970093
18.95462799 -45.18180847 9.72299957
-37.91011047 9.05485153 31.22999954
-34.84999847 36.05649948 4.37300014
41.77216339 -5.45177650 26.73966599
21.42783546 -3.86058640 44.80680084
13.85000038 3.62500000 47.48899841
32.74000168 -37.70000076 2.72300005
28.45019150 -34.02657318 22.79800034
18.95502663 -45.94165421 4.31050014
43.86325836 -23.39867210 5.77299976
-48.90774918 10.91348648 4.27299976
3.84524679 -28.43983459 40.57300186
18.95100212 35.58216095 29.77744484
33.29886627 -36.32531357 8.22299957
47.46426773 -0.40567216 15.83014297
30.97329712 -27.47507477 27.80850029
17.64999962 -19.57500076 41.97499847
-18.09286118 -45.80336380 7.74800014
49.78525543 5.49767876 3.25633335
18.34172440 -36.31999207 28.72366714
-22.18036270 -41.55922699 15.84799957
6.36999989 26.21619987 41.95220184
5.90796423 -48.83307648 7.73728561
14.43880081 -12.35099602 45.83924866
21.92037010 -41.27957916 17.30139923
45.58436203 -17.00795174 11.30633354
3.99303150 -35.79315948 34.25942993
-15.50000000 33.72800064 46.93700027
31.72500038 -28.29050064 26.17700005
32.95445251 -12.33735943 35.26649857
42.90317917 -4.80578184 38.74800110
29.85250092 -36.73749924 16.14949989
46.06266022 8.13098240 17.73966599
-35.72433472 -18.35833359 29.47666740
22.39136505 -44.50418854 2.30157137
41.63800049 -16.10000038 22.37299919
-22.41845703 -14.85057926 41.79800034
-16.14529228 47.53410721 4.33966684
42.02149963 12.06783390 24.30633354
17.39689445 -42.92466736 18.26549911
-11.63497066 48.89337158 4.67299986
23.31419754 33.44010544 29.17300034
18.87418938 -45.25801086 9.21300030
30.44124794 23.13904190 32.29866791
-45.07863998 -17.99164009 11.84799957
41.36430359 13.11468792 24.80633354
-6.07640219 44.77552414 21.95633316
41.64187241 -26.65120888 6.82299995
23.50889969 -23.43430328 36.95566559
-26.75904274 -36.51711655 20.47299957
18.92082596 -45.93395996 4.75077772
39.23381805 -5.38461828 45.07300186
32.30219269 7.65042925 37.20633316
39.47140884 -1.75291777 39.07300186
41.36742020 -1.45470679 41.73966599
21.31881714 -44.39725494 7.78411102
40.16500092 -24.20000076 17.27300072
18.23033333 -34.28599930 31.16799927
18.91315460 -45.82546997 5.28800011
-30.51049995 -4.44900751 39.08966827
10.30331516 -31.27779388 37.21350098
21.16900063 -43.40000153 13.07299995
-48.97482300 10.63535690 2.78550005
40.37094498 -18.39693832 23.20299911
37.76499939 32.53699875 6.77299976
35.58045197 30.79064369 17.44799995
14.94322014 -46.00818253 11.82299995
1.00000000 -13.42500019 47.59249878
1.36860514 -42.22947693 26.17300034
-16.15133667 -42.01775742 20.85300064
22.43323135 35.15508652 27.78750038
47.26471329 -1.84742081 16.17300034
30.34433365 -39.21366501 6.32299995
40.95627975 -16.86722374 23.28728485
-6.28724003 -48.72566605 8.32299995
22.96517372 44.13167191 7.78966665
18.84103394 -45.85011292 5.78728580
24.42657471 -43.39606857 2.81585717
-18.64999962 16.57500076 43.02500153
20.38224792 -20.82723808 40.27600098
-19.54999924 17.62500000 42.55400085
32.43711090 -7.40552950 45.27299881
-1.12646306 -43.83620834 23.35736275
21.17499924 -17.29999924 41.57300186
18.43221092 -45.44732666 8.84442902
-9.48787689 36.60661316 32.86387634
-6.58593988 45.23805237 20.83966637
30.84526825 -8.45862484 38.22299957
8.50000000 11.17500019 47.48675156
40.79090881 -16.33721542 23.79299927
20.00724602 -45.74848557 1.76049995
-23.58054924 36.02729797 25.74442863
33.90953827 30.60200119 20.78700066
-34.63228607 10.58402348 34.31375122
47.06530762 -13.92867374 9.85633373
6.93294525 48.67781448 10.80633354
23.97450066 29.65464211 32.43399811
49.45644760 0.64731324 8.30633354
-15.55000019 -35.05300140 31.52300072
-42.34999847 -33.67499924 25.65800095
-50.08954620 -0.39031401 1.74800003
-24.33225060 27.30209923 34.27299881
17.42277336 -37.86723328 27.17116737
-49.41898727 8.70519161 3.22300005
8.95098591 36.24939728 33.38249969
34.71305847 35.99249268 5.29300022
30.43414497 35.69588470 17.82299995
39.71683121 -26.29262924 15.18966675
26.92262840 41.46014023 9.26585674
47.30562210 -15.91188335 3.81049991
-37.90200043 -32.37733459 2.85633326
-33.56498718 -34.88838577 11.84442902
-13.58943558 46.25858307 14.30633354
25.45835304 13.54065228 40.61166763
25.72750092 -42.79999924 2.72300005
32.02005768 -31.02207184 22.38966751
21.38894272 -42.36668015 15.19814301
-32.72843552 -38.66813278 21.67300034
24.46107292 -23.40876389 36.40285873
-20.48405838 -1.35061717 45.23400116
-9.64999962 22.72500038 45.65900040
-7.05000019 0.02500000 48.91799927
23.97550011 -43.70000076 4.22300005
-43.92794800 3.15970659 23.77300072
17.38918114 -32.79003906 33.11624908
32.56517410 -33.04766083 18.39225006
20.08973503 -45.74272919 2.22300005
23.34635735 43.91897202 7.81050014
17.44550323 40.93891907 23.19779968
36.34836197 -31.36988258 13.77299976
16.37753868 47.60509491 2.30633330
-39.66620636 -25.45886803 16.32299995
33.21563339 12.35598373 35.17300034
23.40645599 -41.82500839 13.74800014
-35.47469711 15.58721542 31.65099907
41.01089478 -19.89590263 20.31299973
20.00499916 -45.79999924 2.72300005
50.02357101 -4.39015436 0.29300001
43.12300110 -8.00000000 23.87299919
23.27199936 -40.70000076 17.27300072
-31.08414268 39.49959183 3.26675010
24.93622017 -40.51978683 14.85171413
19.78599930 -45.79999924 3.77300000
17.39233589 -45.33303070 11.27925014
39.58164215 16.16589928 25.93966675
-42.52187729 -25.38121796 6.23133326
28.45000076 1.57500005 41.66299820
-49.23190689 -4.41104126 7.80157137
-20.10020828 32.65112305 45.67074966
23.47436523 -27.38967705 34.32042694
19.74399948 -45.79999924 4.07299995
-37.93521881 -4.44310570 32.17300034
14.55000019 18.12500000 43.97200012
31.86232758 -25.89566422 28.32311058
28.76933289 -16.31999969 37.15999985
19.45130730 -45.75597382 4.28550005
46.02930450 5.64313793 18.80633354
29.90279007 -32.41950989 23.27787590
48.54463196 8.67311096 8.73966694
18.35199928 -12.19999981 44.57300186
26.48295975 -36.39874268 21.35600090
45.06462097 -18.61882782 10.87300014
-20.94533539 13.06374550 43.28966522
35.99655914 20.14501953 28.36566734
36.00011063 -25.48168373 23.33133316
38.69499969 -10.85000038 29.57299995
46.73457336 1.00927711 18.07299995
-19.87857246 -23.27412796 39.09799957
34.44385529 -13.88754082 33.29399872
39.70299911 -1.39999998 39.47299957
19.45667076 -45.76906967 4.77299976
21.69099998 -43.70000076 10.67300034
28.80966377 21.59613037 34.68022156
5.49136066 49.10189438 9.77299976
26.67399979 -41.29999924 9.17300034
13.42322540 -45.52144241 14.83966637
38.00283051 14.08292389 29.29311180
-40.82551575 -28.52185822 2.17300010
-9.57091427 46.45491028 16.79714203
19.35700035 -45.79999924 5.27299976
-16.54999924 23.17499924 52.11050034
39.81999969 16.96249962 25.12400055
6.40000010 -0.82499999 49.18099976
18.38043213 42.58522415 19.30125046
20.97887993 -26.50221634 36.44466782
-11.01672363 -47.81455994 8.77299976
33.69720459 -21.24266434 30.12299919
28.87514114 -36.37322617 18.31337547
16.35066605 40.45660400 24.78039932
-13.10000038 0.07500000 47.72525024
14.35000038 -8.77499962 46.67599869
-12.09346485 -47.88014984 5.82299995
0.31271797 -49.71084595 2.32299995
34.44937897 -20.94724274 29.35342789
-24.52457809 38.70184326 38.83014297
0.41646606 -36.90256882 33.27563477
-6.60099363 -46.80736923 15.31000042
29.89453697 -39.34926224 6.80157137
-19.73747253 -42.64773178 15.97299957
34.99906540 -24.41089058 25.81388855
38.74750137 27.39999962 16.22299957
24.19365883 1.63695216 43.57300186
41.00000000 -28.76799965 0.02300000
-12.05000019 13.57499981 46.14350128
35.28250122 -30.73749924 17.67049980
19.21784973 -45.74485397 6.27299976
11.52575207 20.68627739 43.79724884
37.90821075 -2.39976096 32.30633163
-49.51899338 -4.35109997 6.23549986
-41.59471130 16.10062218 22.77611160
-44.24792480 -4.00923347 22.84300041
48.61399841 1.20000005 11.77299976
-41.20050049 -6.92868757 27.33637428
36.75720215 -0.39427561 33.71300125
5.43219423 43.06151199 25.24416733
45.27133179 17.58197403 12.77299976
23.44371033 -15.86536884 40.84011078
-6.05000019 -6.37500000 48.61700058
6.98128414 -22.32834625 43.79100037
-38.85693359 -31.22017860 0.37300000
24.43913841 -43.38496017 3.28966665
-44.48889923 12.06437111 19.64299965
-29.98826981 8.10147095 39.09799957
-7.55000019 -47.17499924 14.13799953
-4.56620264 33.06779861 37.27500153
18.88429832 -45.74917984 6.26300001
35.27859879 23.59700012 26.66780090
-36.67250061 -39.96950150 25.42675018
36.76984024 -32.31901550 9.79300022
39.02949905 2.04999995 45.47299957
32.95929718 -24.39294243 28.39116669
-38.75000000 18.22500038 26.00600052
40.71400070 16.89999962 23.57299995
18.76920509 -45.76724625 6.80633354
44.76326752 10.62457371 19.67300034
-12.54305935 -47.02117538 9.79800034
49.42669296 8.07419109 3.25077772
-47.51482010 -25.39645576 21.09799957
31.05097198 39.63280487 0.80157143
14.98840904 -13.46085548 45.33324814
27.25000000 38.92499924 16.85600090
35.33499908 34.89250183 8.19799995
-38.45553589 19.40757561 25.66166687
35.59726715 -15.46132469 31.35266685
29.33743095 -40.30200958 2.29299998
49.26805115 -7.38816023 5.73299980
18.95215797 -45.52989578 6.78966665
18.40754700 -32.47397614 32.84577942
-20.35600090 46.00000000 5.82299995
23.28001404 -16.73982239 40.62300110
24.37715149 -42.91854095 7.31050014
44.39338303 -5.40298843 22.24442863
-4.69518900 -45.22655106 20.17300034
18.81602097 -45.73954773 7.17299986
-24.18025017 26.04999924 43.77299881
30.39200783 -32.55035019 22.36466599
18.29203987 -45.74966431 7.71299982
17.18199921 -45.79999924 10.07299995
42.51368713 -17.95184517 19.30299950
-25.18846512 28.64183617 42.20633316
23.08032227 25.20852661 36.44566727
-34.95299911 -14.90398026 32.21760178
-0.50000000 20.17499924 45.35599899
-44.05599594 -3.38054156 23.34799957
16.89258194 -45.75545883 10.62300014
-27.56614494 -41.45300293 -0.14366667
39.20883942 31.54060936 0.23549999
36.53345108 -31.97388649 11.78966713
-21.35000038 -38.17499924 23.65699959
40.22800064 -22.70000076 19.07299995
15.44999981 41.27666855 24.01499939
34.99278641 -35.55899811 0.32300001
-11.55963135 46.09885025 16.33014297
22.20100021 45.40000153 1.22300005
-31.64619255 28.12211227 26.85899925
23.37100029 -39.20000076 20.27300072
-27.13002586 -27.40187836 31.36199951
22.00998116 14.13420773 42.34487534
8.24698639 49.87718964 -0.22700000
16.75000000 7.12500000 46.10599899
-30.82773399 39.31301498 5.47300005
-3.50831747 30.09909821 39.76100159
-1.13101268 -28.96857071 40.25766754
41.45317841 -27.37742615 5.29799986
36.49485397 20.63544083 27.31299973
16.26298904 -45.76300430 11.30633354
41.81698990 10.53706837 25.25300026
-3.00982189 -21.50462532 44.74800110
-28.29999924 -33.52000046 23.42300034
20.81472206 -45.32452774 0.32300001
-43.38383102 -22.17062569 10.57299995
22.36058998 -42.37471008 13.74174976
42.22826004 -8.83194065 25.17300034
-45.00160599 16.53970718 14.83966637
25.71999931 -38.23749924 19.18700027
-35.37372208 1.96151423 35.17300034
23.86695290 -41.35954666 14.30157185
-11.05000019 -39.08950043 28.52300072
47.18199921 15.39999962 7.07299995
-28.94013786 -18.82222366 35.80300140
38.55681992 28.19161987 15.32299995
-25.14240074 -5.38000011 42.36999893
22.44341278 -40.00082779 19.33300018
-34.74532318 31.23980331 18.27300072
-41.03417587 27.01399803 10.33549976
16.92622757 -45.34297180 11.80157185
-14.09573460 -46.91654205 8.29522228
-34.25000000 -30.07500076 24.10700035
25.53249931 -16.03750038 39.50899887
-28.57924461 -1.87567031 40.73966599
24.93601990 -11.88215160 41.31959915
-28.50942230 -40.86197281 0.82300001
23.94366074 -40.97167587 15.26585674
25.91002846 -32.96060562 26.86300087
-32.54999924 -35.27500153 23.96699905
31.35796738 -8.45299911 37.80157089
4.44999981 16.57500076 46.44350052
-22.95339394 2.16445374 44.17300034
30.26700020 -39.20399857 6.69799995
17.82484436 -44.22800827 14.73366642
44.53318405 -6.41367245 21.83300018
-36.19138718 -30.44835472 15.87300014
46.25017929 -15.25831985 11.67300034
-3.56666660 -18.44733238 45.85200119
-23.29599953 25.00000000 41.22299957
12.95860767 40.41453934 26.76339912
20.81777763 -45.32346725 0.80157143
34.00762558 18.09075356 31.88616753
23.32449913 -44.29999924 0.32300001
-36.73309326 -29.57534981 16.29800034
-28.93963623 31.93508530 25.75300026
40.38175964 -9.41580963 27.80633354
19.45000076 20.32500076 41.06600189
18.41725540 -44.23861694 13.74800014
-37.02039337 13.53369427 30.73716736
6.30000019 -43.04600143 23.92300034
-31.85000038 25.49900055 29.11849976
27.30235100 -36.80595779 19.74183273
26.41290665 -31.85383606 27.75230026
10.40116692 -29.29728127 38.68600082
29.87075233 -39.86883163 2.27300000
-28.08699989 36.09999847 38.82300186
14.93333340 -14.92233372 44.87300110
22.24900055 -15.80000019 41.57300186
-16.01806641 -6.96629286 46.59799957
-31.03156090 -14.36620045 36.15033340
10.89999962 14.62500000 46.17050171
40.26116562 22.50976372 19.62299919
12.93208408 48.10888290 7.33014297
4.05000019 1.62500000 49.26599884
16.91079330 9.05426121 45.84416580
7.52762318 33.93240356 36.07300186
21.26499939 -45.20000076 0.47299999
11.89585876 -39.86351776 27.20400047
20.42981720 -45.45255661 1.78728569
38.43415070 -25.41444206 19.31442833
-11.60331059 -45.95107269 14.83966637
32.40641403 34.07817841 17.73699951
35.86015701 -34.34311295 5.79300022
20.95888901 43.19015121 14.83300018
28.82838821 -40.83242798 0.33133334
48.76892090 -7.30134869 9.17300034
4.48978376 -48.84929276 8.30633354
-8.05668736 -46.77344894 14.81416702
20.18199921 15.10000038 43.07300186
20.41091728 -45.39582443 2.29522228
7.44999981 -13.87500000 46.87699890
-36.77475357 -29.58975983 15.88966656
18.95880508 -38.21798706 25.68700027
43.72430038 2.17187858 24.07299995
20.83149910 -45.31814575 1.27300000
20.46604347 -11.39518070 43.82300186
-35.04999924 -39.32199860 17.42300034
-19.47084808 41.90134430 20.12849998
-34.60372543 32.19231033 16.78933334
12.87978268 43.93767929 20.70366669
20.45113754 -45.42950821 1.34442854
-31.02490425 -23.88511848 30.71566582
40.70266724 -27.19733238 10.27299976
-1.65186977 -46.33877563 17.81299973
32.36226273 37.98283768 6.19799995
-46.92890549 -8.42917824 14.78966713
46.32253647 -10.44618511 15.78966713
20.80529213 -45.32330322 1.73133337
34.94748306 -35.47218323 3.26585722
45.27074432 3.63771081 21.07299995
31.29850006 -15.35000038 35.57300186
22.92109108 -41.79583359 14.77683353
46.73197937 6.01818562 17.17300034
25.74399948 -37.70000076 20.27300072
15.98134232 -42.02009201 21.32362556
20.44523048 -45.38842773 2.81049991
-2.00000000 -7.42500019 48.87874985
-48.58989334 -3.92823100 11.34300041
24.76360321 42.93276215 8.73550034
-39.15876389 29.73442459 9.87300014
20.90742874 -40.04666519 20.83300018
47.30088043 4.57996941 15.81585693
5.34999990 19.39599991 45.62300110
31.83662987 -36.35062408 12.76585674
-45.58787918 21.18520546 -0.17700000
17.87258339 -42.92267990 17.79566574
39.99183273 -28.96968269 6.88549995
-22.98516273 33.07603073 44.14979935
22.94559097 -40.90783691 16.80155563
15.96495247 -39.41729736 25.78599930
30.41332245 -25.87183380 29.82144356
39.28371811 16.52130508 26.29314232
6.40780163 -40.20750427 28.57299995
32.51352310 32.13995743 20.83410072
35.37496567 -34.92999649 4.75871420
42.78836441 14.10330105 21.71299934
-45.54619217 17.52037430 11.32925034
43.97807693 22.09690094 9.82299995
34.46412277 13.60370922 33.45700073
24.95215607 19.14333534 38.80974960
9.66615009 -44.73864746 19.57299995
30.34596252 -38.38974762 9.77299976
35.89081573 -27.38471031 21.31024933
22.73399925 -28.73999977 33.69800186
-27.95833397 41.46200180 6.28966665
-16.13264465 -18.86213493 42.86828613
41.61111450 -18.55943108 20.47299957
-34.63858795 18.64410782 30.90724945
-43.51131058 -19.45433235 21.23966599
42.26900101 -16.79999924 20.67300034
31.33705139 -30.79693794 23.73733330
27.89770126 23.56222153 34.20442963
-3.09999990 -44.16099930 22.52300072
1.91212046 -36.84101486 33.28872681
28.94349480 -35.48423767 19.78188896
43.47259521 20.65136147 13.80157185
-22.12425041 -1.86249995 44.40625000
37.40270996 4.59502935 32.75299835
-23.72239685 41.72175980 14.82299995
22.42616081 -41.85136414 15.25157166
-23.56787872 19.55387688 39.29733276
16.00018692 -47.02058029 3.80299997
29.87765884 31.44874573 25.20775032
45.11136246 18.73097420 11.30633354
-23.54999924 41.92766571 14.79500008
30.90927315 -14.39258671 36.33277893
-22.85000038 -14.17500019 41.57899857
-14.54997540 -46.89085007 7.78728580
21.31243515 38.47342682 24.14800072
20.36216927 -44.28509521 10.77299976
30.85635185 23.55158615 31.63599968
14.44999981 6.12500000 46.95199966
11.93184471 -14.42749214 45.91199875
42.01327515 -17.89000320 20.31299973
14.47001648 -46.89568710 8.29800034
33.69400024 9.39999962 35.57300186
37.70288086 -32.86821747 -0.10200000
31.74099922 -25.70000076 28.67300034
-37.51843643 -32.92852783 0.28133333
20.39704323 -45.41493225 3.27300000
20.42209816 -45.34704590 3.79522228
33.42444229 37.08295822 6.28299999
-30.04999924 -32.17499924 23.24300003
31.09312057 -24.40877724 30.35128593
-33.05193710 -2.98363709 37.27299881
-43.05225754 15.58172989 20.32299995
15.74410343 -45.76356125 11.75633335
-5.59999990 18.07500076 45.86299896
27.44695091 42.13677597 2.29800010
39.12306976 -31.02185059 1.77300000
25.90611076 43.08050537 3.28299999
-39.95848846 -29.90790367 1.33550000
-23.42799950 41.50000000 16.32299995
49.11700058 7.59999990 6.17299986
41.42221069 23.10347939 16.27300072
-47.26236343 -13.39630127 8.79800034
29.26790237 -9.40130138 39.12300110
20.37685776 -45.33324051 4.28014278
-15.11009979 -37.48644257 28.78879929
-34.90000153 -39.64300156 20.12299919
5.05000019 -45.67499924 19.34600067
20.36961174 -45.30729675 4.73133326
-24.50000000 26.62500000 47.77399826
-33.17100143 -6.43750000 36.45550156
35.95000076 6.67500019 47.61800003
27.81150055 -40.68899918 8.19799995
29.86811829 -28.27756500 28.19050026
-19.63176537 46.56011200 0.22300000
16.94436646 -24.95205688 39.42219925
43.80296707 -22.82372284 7.79442835
-22.59760475 34.49786758 31.75633240
48.63700104 -11.60000038 1.67299998
25.48633385 -42.77166748 4.22300005
3.94632411 -40.99158478 27.84612465
47.24516678 -6.38959503 15.20633316
32.34999847 4.72499990 45.00199890
38.32277298 -31.85231400 3.78966665
-6.50000000 -11.77499962 47.70800018
8.46789074 -31.78490448 37.20628738
42.93670273 -3.90924382 40.24800110
-34.60153198 36.56460571 2.31744456
39.29282379 -30.85888290 1.29299998
39.81195831 -4.82916307 29.67300034
-11.44999981 23.02499962 48.06200027
3.99196291 39.49914932 30.70742798
17.45823479 40.57965469 23.78612518
31.42482185 -23.92910767 30.35000038
6.27627993 43.36261749 24.67300034
42.92845154 -5.87605715 39.82300186
44.05348587 3.17845964 23.40633392
34.97442245 -35.41341782 4.27299976
-5.44336987 -34.72446442 35.14799881
23.36499977 -42.79999924 11.27299976
47.32862473 12.56418800 10.73966694
-3.60002470 -46.97125244 15.81744480
-44.12739944 -31.85939980 24.88299942
-44.74700165 -31.47166634 24.28966713
28.90225792 -14.42464256 37.87911224
-16.36032867 -28.23972321 37.57300186
-30.35976410 -7.36713457 38.70750046
32.44002914 12.61890507 35.76062393
25.84585953 4.53113127 42.26124954
5.94590235 -44.31368256 21.79628563
34.50709152 -26.48156929 24.37299919
33.36405945 -23.93015862 28.30224991
18.54999924 45.80199814 9.32299995
42.46522141 25.62071037 7.76585722
29.43673897 -33.86733627 21.81660080
16.89999962 -12.37500000 44.88650131
8.94999981 -38.17499924 30.62599945
-42.65046310 -25.87971497 0.25633332
29.88215065 -35.27148819 18.68966675
35.81800079 -33.20000076 10.82299995
29.54064369 26.17411804 30.86149979
15.38251972 39.54485321 26.81928635
17.42594528 -18.39052582 42.72766495
-27.16685104 -18.47389412 37.29850006
37.35351181 -0.97298026 37.23966599
29.92564392 -30.40507698 25.80722237
19.87926674 -45.44688797 4.79799986
48.00548172 9.55894947 10.79300022
28.37096596 41.08165741 6.22300005
19.85566521 -45.42213058 5.30027294
-7.09867716 46.69828415 17.32927322
-43.71280670 -5.46898270 23.40633392
-43.16100693 24.15295219 8.34442902
-41.71699905 -17.50000000 21.32299995
46.83614731 3.58785129 17.33014297
-47.27349854 6.55000019 14.82299995
-17.67709351 -46.45786667 2.29800010
19.03300095 -35.21666718 29.64599991
-29.96053505 -10.88224030 38.20633316
-15.05000019 26.17499924 51.25099945
46.75562286 14.56539249 10.70633316
48.85765457 8.07654476 7.77299976
-21.95000076 37.42900085 25.22299957
25.81299973 -36.20000076 22.67300034
14.45238209 -46.03912735 12.29300022
-43.21680832 -9.88218975 22.84300041
-28.68307877 -26.13749504 30.97299957
39.34493256 13.10040283 27.83028603
-27.14708519 40.59301376 11.82299995
4.44999981 23.62500000 43.48699951
47.27810287 11.00163841 12.77299976
32.44954300 -31.96607590 20.32155609
26.59585381 -28.56780434 30.88875008
24.37014771 40.57855225 16.78025055
-42.51196671 14.33941841 22.57299995
-13.53999996 -2.45000005 47.82300186
30.31806946 -18.88834000 34.69075012
-38.20000076 -27.87100029 17.12299919
-21.62711716 34.22857666 43.92449951
37.92726898 -32.46540833 0.29175001
-2.00000000 -7.87500000 48.73550034
23.93935966 -43.79365540 0.80157143
-16.79520035 -45.64515686 9.97299957
-48.38059998 2.94545341 12.67300034
20.41433334 -40.78200150 20.19199944
-31.88415146 5.02682209 38.17300034
-40.70460129 -28.82520866 -0.52700001
47.26604080 2.05220437 16.19300079
-23.95480347 -30.23745728 31.27300072
-35.92300034 -31.39999962 16.32299995
45.76042557 -14.38988876 14.28966713
24.96726608 -33.36413574 27.27433395
3.17278814 -48.16316605 12.07299995
19.36083221 -44.30495071 12.29300022
-26.08543968 -17.41775131 38.46200180
11.92764282 -8.87388611 47.25866699
-46.57619095 -14.44065571 10.76188850
45.26410675 -12.39146614 17.30633354
-40.67081833 -28.89806175 0.84799999
41.90294647 0.58432710 27.25077820
16.91998100 -44.24002838 15.76666641
38.86038971 -1.96123385 37.81299973
30.95742226 -34.89307022 17.78612518
-1.23319423 -48.68854523 10.27299976
-0.53092992 -36.38085938 33.80229950
43.31392288 -22.80733871 10.27299976
19.83481979 -45.37930679 5.80633354
26.40209579 -34.28040695 24.75728607
4.41382694 41.56062698 27.82600021
-29.98043633 40.46683884 1.33550000
-14.06023693 -44.96575546 15.85330009
19.50757980 -45.45733261 6.26585722
20.40934181 -15.27870274 42.70633316
27.28877640 41.98945236 5.26466656
-14.01400852 -26.30622673 39.63966751
27.87234497 -32.30836487 25.77140045
19.14999962 -15.37500000 43.07300186
34.73233414 -14.78800011 32.65000153
-6.54499769 -31.93054771 37.37028503
38.10739899 4.09556246 46.27299881
14.39044380 36.00823593 31.72571373
-6.61069632 45.74898911 19.81742859
31.45620537 -15.38679314 35.40525055
-26.89299965 41.50000000 9.72299957
43.55379868 -8.47671795 22.87299919
26.56034470 -42.11669540 1.57299995
-38.18207550 -3.34164548 31.89075089
-26.16196823 -22.92130661 35.46549988
15.91600037 32.96966553 34.15800095
36.26835632 -10.38756466 32.71540070
-47.67915344 -6.96404171 13.29800034
15.40536976 -41.44645309 22.82028580
-46.00000000 -27.69700050 26.72299957
9.41738415 39.61470032 29.31872749
34.38428879 -11.42427540 34.23587418
25.45897865 -37.06739807 21.38549995
46.78443909 -14.32304955 10.71300030
40.75045776 -22.38306999 18.27300072
19.74186134 -29.82682037 34.62300110
3.94707012 -20.77621078 45.07300186
23.44181061 -43.82828140 4.31050014
19.37343979 -40.78701019 21.15633392
40.70000076 -28.21299934 7.22300005
13.40185547 20.97237778 43.24800110
47.11723709 16.13690758 5.83966684
1.00000000 8.62500000 48.79700089
20.38065529 22.50715256 39.64059830
19.40874290 -45.42622757 6.80633354
48.76346588 -4.83610868 10.23966694
36.38654327 5.12096405 45.25633240
-41.15514755 -7.44264555 27.31514359
7.88568163 -47.54777145 12.34799957
36.49097824 2.72184205 41.70633316
19.37197876 -45.37642670 7.28728580
35.39035797 -33.89712143 9.75424957
27.40251350 -38.93618011 14.84442902
32.77598953 28.45787239 25.15266609
29.52041817 -40.03955078 3.82299995
32.95000076 -3.37500000 49.27399826
33.50693893 -34.89665604 12.26585674
-45.07760620 -20.39709282 20.33966637
35.50596619 3.14452577 34.84799957
19.42350388 -33.93506622 30.77428627
43.71508789 -4.88976669 23.69300079
-39.04726410 12.56643772 28.63966751
-47.16933060 0.08713701 16.73550034
-25.87471008 32.73982239 34.89799881
25.42300034 -42.79999924 4.82299995
-34.95000076 -39.77500153 25.87599945
15.95960331 -21.82392883 41.68857193
-22.10000038 28.57500076 47.37500000
-5.59999990 30.68183327 38.99000168
34.77648163 -34.37174225 10.29300022
-18.11697769 6.05131340 45.87424850
9.25000000 3.52500010 48.59000015
14.89276218 -37.31755829 29.31433296
-6.15013313 -48.58833694 8.29800034
-21.10335541 -45.04681396 3.21466660
19.37047195 -45.31915283 7.71585703
16.04384232 -34.09880829 32.44800186
1.45000005 24.14333344 43.48500061
35.59809875 -32.52146530 12.83549976
-46.43837357 -16.35587502 8.28966713
31.36696243 -38.35731888 6.26466656
49.35797119 -7.44940186 4.74800014
-42.06589890 27.64910126 -0.16700000
27.47027588 -38.02583694 16.82299995
20.59547424 -41.60686493 17.89800072
25.45000076 25.72500038 34.52299881
22.46409607 31.59910011 31.83799934
-14.60000038 -9.37500000 46.24700165
2.43138671 -49.74107361 1.72300005
-5.09012175 -48.30419540 10.33966637
-32.57237625 -22.39304161 30.28537560
-35.49519730 22.58401299 27.17683411
49.43981552 -8.38855076 0.30157143
18.93930626 -45.46146774 7.78728580
-25.71747398 -40.56671524 12.82299995
30.37834167 -32.95415878 21.82869911
-11.02183819 49.20609283 0.78966665
5.37047577 -23.26027679 43.57300186
28.84675598 37.96249771 15.77957153
-9.43666935 42.99571609 24.21533394
28.48308372 -16.35960007 37.34416580
20.87333298 -35.79000092 27.67399979
35.13684464 -32.44983673 13.87300014
-34.22821045 -35.07674026 8.32299995
44.92419815 21.16469765 7.29300022
35.45499039 -32.88849258 12.26585674
42.73600006 -4.09999990 39.47299957
-1.05301309 -28.38927841 40.69824982
41.51946640 7.63410997 26.74799919
-6.02801323 -29.22052193 39.65866852
17.91388702 -42.34816742 19.20280075
-43.97417068 -19.87871361 12.75157166
48.57575226 -10.88572407 5.30633354
48.97626495 0.11382830 10.73014259
-21.06288719 -36.90440369 25.71439934
11.89353561 -35.19977570 33.07300186
16.00609398 24.64532471 40.35900116
-36.94536209 -29.71203804 15.25633335
21.26298332 -43.71148300 11.28966713
30.40449715 21.62072372 33.31154633
35.46271133 -32.50981522 13.32299995
38.67520523 0.92277437 45.67300034
-44.76701736 -22.04293251 1.80633330
48.06803131 -13.89634895 1.78966665
40.22093964 -17.35593605 24.07299995
5.41675615 25.46041107 42.63966751
-2.12524199 -45.51242447 19.75633240
18.95579720 -45.34889984 8.28800011
7.45173168 -48.85562897 5.82299995
17.94904327 -36.37876511 28.84000015
20.44592857 -45.20531464 5.73966646
45.02649689 11.06496525 18.83300018
21.42729378 -26.39544296 36.30419922
47.08960724 -7.91267729 14.77299976
18.83498764 -45.30102158 8.77299976
44.50640106 -20.43919182 10.27299976
31.47968674 -38.12649155 5.77299976
27.79923439 -40.83486176 7.30633354
-22.07859421 -28.35344505 34.27855682
44.76037216 8.59095955 20.72299957
21.83650017 -41.23749924 17.74550056
-15.05000019 -5.92500019 46.72249985
29.81956673 -18.77230453 35.17660141
-21.04176903 -30.83298302 32.75600052
21.37374306 -43.91827774 9.79522228
20.95000076 32.82699966 31.52300072
33.83246994 -20.89971542 30.21414375
-8.64999962 -44.08000183 21.02300072
-47.81800079 -5.90000010 13.32299995
29.44227791 -36.37604904 17.28300095
12.39999962 46.25500107 15.02299976
42.57849884 -0.94999999 25.97299957
-31.07690430 10.11027622 37.66279984
34.15000153 27.82900047 24.02300072
39.20933151 -21.74399948 22.20100021
39.77471161 -0.95789534 44.63966751
24.76226234 -43.31111145 0.31050000
37.65999985 -10.39999962 31.07299995
31.82089996 -22.36898422 31.33722305
18.39031601 -45.36162567 9.30157185
32.95612717 -36.63307953 7.87300014
-2.60979295 -42.37609100 25.78811073
27.40116692 -28.43570518 30.33133316
26.62500000 -19.05200005 37.49449921
23.41153908 22.10622597 38.22200012
20.41806602 12.06827831 43.80516815
-47.12076187 17.08505058 1.77300000
24.99694443 -27.91095734 32.82511139
29.83699036 7.93293047 40.23966599
-35.00000000 -33.82500076 24.97175026
18.43344116 -11.95236588 44.45520020
13.14999962 -10.87500000 46.52000046
29.97751045 -39.47991943 5.83300018
9.44999981 1.62500000 48.51800156
39.45784760 -28.47661781 11.30157185
25.50399971 42.40000153 9.77299976
17.91015625 -45.37650299 10.29300022
39.82101059 -17.30361176 24.72080040
31.23235703 -35.78768158 15.20633316
-14.61271381 -27.35449791 38.70000076
-43.46806717 -19.05634308 19.29800034
-2.00000000 -13.57499981 47.41699982
43.24930573 11.08264828 22.59799957
26.45050812 36.03493118 22.77799988
18.38581848 -43.99103546 14.31744480
24.39784813 -42.35653687 9.79522228
-7.61077929 -44.73309326 20.18779945
-24.00399971 -41.23199844 14.17300034
33.19800186 -35.24700165 12.24800014
-31.40473366 -15.70696259 35.17300034
45.50411224 -10.88212204 17.73966599
7.87297010 -48.10210419 9.81299973
-1.54999995 -15.82499981 46.80199814
6.83148670 -27.77987862 40.59450150
17.76589394 -45.37231445 10.71300030
-17.50890160 11.02584553 45.26750183
-24.37519646 38.91085434 20.23966599
43.77591705 6.07315683 23.37299919
47.18806458 17.44149590 1.72300005
12.93419266 -43.49319839 20.33827209
23.86787415 -42.73369598 9.68966675
-19.09775352 -40.34523773 21.78300095
37.86743546 -32.40089035 3.27855563
32.96623230 -37.38259506 3.77300000
45.02588272 -20.55821037 6.84800005
9.97877312 -48.40370941 5.83966684
17.95000076 14.62500000 44.06600189
-11.14999962 39.78049850 28.51399994
-26.95557213 31.62752533 43.29800034
34.76434326 17.02875710 31.62299919
18.41128159 -42.90003586 17.29630089
47.60249329 -13.09688950 7.83966684
25.03231621 -30.49337387 30.40780067
41.33864975 16.58177948 22.73299980
-40.15074921 -35.45149994 26.89800072
18.01399994 -14.41666698 43.98799896
40.52287674 -20.48366928 20.77300072
26.41775322 -40.31868362 12.76466656
36.23408890 -25.79064751 22.72224998
-8.01666641 -19.39383316 44.89450073
-47.40399933 -27.50000000 21.42300034
26.33200073 -42.20000076 5.27299976
36.79999924 -32.66799927 8.72299957
40.14215469 -29.49014282 3.27300000
-13.57034969 -30.92080688 36.38425064
-34.44458389 2.50952196 36.07300186
42.22060013 26.54172897 6.26049995
17.45145035 -45.40999603 10.77299976
35.84049988 -27.73749924 21.15950012
23.87806892 24.05743790 36.68259811
-28.63853264 33.72970200 23.47299957
36.53730392 -28.98478508 17.86050034
1.90866005 38.45529175 32.14799881
-37.81000137 11.80000019 30.42300034
24.91277313 -36.36537170 23.25933266
47.59467316 -9.98373985 11.73299980
48.36855698 -6.38636875 11.31050014
31.68449974 -38.27399826 5.19799995
29.31660080 -30.29960060 26.67259979
-41.94435120 24.92116356 11.77299976
-18.51584625 38.10827637 26.85300064
21.90364838 -33.37174606 29.75142860
5.78861189 48.90515518 10.67300034
48.15100098 -8.89999962 10.37300014
42.53656769 -6.91238689 25.24442863
-37.90000153 -30.29199982 11.87300014
-34.84999847 22.44499969 28.15250015
22.45927429 44.14883041 8.83300018
44.00291061 17.06490517 16.77300072
-5.60471869 -24.75844002 42.62575150
8.60000038 -48.63100052 5.42299986
-17.00000000 32.62500000 46.96250153
16.88758659 -45.27968979 12.20300007
27.25000000 -37.70000076 18.17300034
-22.66212273 -25.04284859 36.41799927
-17.60000038 -10.87500000 45.02149963
43.07799911 -5.90000010 24.47299957
38.23149872 -28.70000076 14.72299957
14.95866489 -40.23099899 25.25250053
20.41910744 43.99737549 13.27925014
-35.50000000 -39.97000122 19.82299995
40.63183975 26.15849495 13.32299995
30.82695961 -11.92115211 37.22639847
-28.09858894 -21.90119553 34.75600052
41.38294983 -5.47698832 43.19800186
3.40765166 -35.83728409 34.26366806
-8.63341427 41.78261185 26.43966675
21.18700027 -45.20000076 0.77300000
22.41438675 -33.91473007 28.74714279
44.41177368 7.52350092 21.83966637
40.45269775 -28.48715210 6.84800005
3.40000010 12.67500019 47.84749985
47.24029922 -8.40014172 14.31299973
9.30976772 45.84456253 18.67300034
48.59092331 -8.95568466 7.77299976
22.80699921 10.14999962 43.07300186
26.93324089 21.52373695 36.15266800
-16.06212425 -15.35324192 44.29000092
34.85046387 -7.34401083 46.72299957
-21.02018738 -36.25568771 26.69066620
-25.25000000 22.72500038 36.53900146
23.29588890 -43.29726410 8.68966675
45.88894272 20.06752586 3.27855563
30.37866020 -39.42888641 3.79522228
-28.35639572 10.53730488 39.67300034
16.41972923 -43.44585037 17.84124947
46.28045273 19.49901772 2.28299999
44.81990051 21.53905106 6.81744432
19.81563377 -44.27236557 11.74800014
39.00359726 29.66898918 10.81299973
-20.05800056 -1.41999996 45.28779984
29.23600006 -36.20000076 18.17300034
-37.29553604 18.18190956 28.01499939
48.85552216 -9.95894718 4.75077772
23.25699997 -40.33750153 18.13400078
5.89918947 44.30463028 22.90166664
21.23500061 -45.20000076 1.22300005
-29.41866684 40.46200180 5.85633326
-36.70823288 30.10815811 15.86299992
43.69566727 -19.44133377 14.77299976
-42.72999954 -36.39566803 20.88966751
29.29441452 -38.83832932 11.24800014
48.01452637 0.05535534 14.31299973
-10.10000038 45.22074890 19.37299919
34.30228424 -16.41909599 32.19675064
21.20050049 -45.20000076 1.82299995
12.39999962 -29.47500038 37.89049911
35.28791046 -11.81018734 33.21224976
-26.71674919 33.54999924 37.77299881
-2.65182710 -49.70872116 0.22300000
24.44433212 -11.38321400 41.79737473
-35.75574875 7.63664007 33.96725082
-23.94192886 12.91106319 41.77299881
-49.14509964 9.61850452 2.79800010
32.25400162 -36.20000076 12.32299995
-45.97107697 -17.33752632 8.78966713
23.41661644 34.97921371 27.24049950
24.34693527 -36.78668594 23.19883347
17.33613586 -43.84756088 16.25814247
-24.16093254 15.13529587 40.88150024
-17.60000038 21.82500076 50.79199982
35.01096344 26.72828102 23.86050034
28.95202446 -11.35855389 38.84424973
-37.20493698 33.20243454 5.82299995
27.09067535 -28.64631081 30.37299919
21.94443512 -25.91860962 36.31962585
-46.78057098 14.05810356 10.79300022
-1.10000002 -12.37500000 47.89099884
5.44500542 -42.38491440 25.38699913
38.70399857 -26.29999924 17.57299995
-27.97842598 36.42748260 20.29299927
40.49537659 -7.42849064 28.25300026
22.85217476 -42.38298035 12.77299976
-26.71051788 -24.47807693 33.99399948
33.47160721 -28.45114899 23.47299957
24.84592819 -42.35077286 8.78966713
-24.60087013 43.60642624 5.32299995
21.74152374 28.88841248 34.62300110
-34.86933517 -20.24699974 29.28533363
9.43669319 15.09354782 46.57300186
-41.77199936 -33.46633148 26.85633278
-17.14503098 -36.62760544 28.84799957
27.01726723 -40.07089996 12.31050014
35.54838181 -8.48392296 33.90633392
-47.50000000 -25.79800034 26.12299919
21.16600037 -45.20000076 2.27300000
30.95000076 -3.77500010 46.82699966
38.30378723 12.09497070 29.80016708
-34.43963623 -2.43551135 36.07300186
38.90932465 -28.85597992 12.26675034
21.15699959 -45.20000076 2.57299995
-29.46599197 34.91085052 20.83550072
17.93061638 -19.90638161 41.76525116
11.47394753 -38.48169327 29.32225037
24.84824371 -31.79076195 29.18799973
-45.02477264 16.59846687 14.31299973
8.94999981 -4.42500019 48.39199829
40.72619629 24.98495674 15.23550034
27.40493774 10.59861088 40.25485611
-25.05540466 -26.37546349 33.79945374
48.63768387 -11.59555054 2.73966670
-6.05000019 2.32500005 49.11500168
-15.58529568 44.69569016 16.75633240
22.33561516 -42.76812363 12.68966675
-16.85000038 19.12500000 47.09600067
29.92199135 -39.76797485 4.29300022
