8.7892000000 27.6037270000 -15.1300000000
9.5215000000 -31.1939960000 -14.5300000000
9.5314000000 -30.5939150000 -14.5300000000
-39.0415330464 -23.6288844148 19.0866666667
-29.8996773709 -19.3496952494 33.2227857143
13.8000000000 -7.5300000000 45.3580000000
9.5244000000 -29.8439300000 -14.5300000000
9.4325500000 -26.9943785000 -14.5300000000
-28.4185263246 -14.3811346742 36.5705882353
9.4073500000 -22.7943785000 -15.1300000000
-19.9974023327 -22.2384775742 38.1552727273
-15.4500000000 11.2200000000 44.0110000000
-32.7353230000 30.0251760000 21.3200000000
9.4673500000 -24.2940725000 -14.5300000000
-38.0057567475 23.2779306142 21.1400000000
9.4081000000 -23.5444010000 -14.5300000000
-49.8218118791 -7.4122145607 0.8985714286
-38.6263397119 8.6586033334 28.8200000000
6.7261619585 -44.7824182048 20.1210000000
-49.7917907958 -8.0432595019 -1.1800000000
30.1095457807 39.1521291219 7.8200000000
9.3830000000 -21.4444760000 -14.5300000000
9.3953906198 -20.6417642353 -14.6050000000
8.9740000000 21.3046090000 -14.5300000000
1.7511051271 -50.1939255691 4.3700000000
8.9135500000 24.0043435000 -14.5300000000
8.8621000000 28.9542130000 -14.5300000000
8.8810000000 31.0544020000 -14.5300000000
4.5613072863 31.1448072036 36.8446250000
8.9124000000 33.1546660000 -14.5300000000
-16.3663092878 -23.3579754907 39.2568571429
-23.4357236502 16.4506742091 38.8885625000
-27.7279915260 33.2614774980 23.3164444444
-31.4490120000 -38.4380710000 6.6200000000
9.5160000000 -31.9440560000 -15.1300000000
9.4616500000 -30.5943335000 -15.1300000000
9.4419000000 -29.8444250000 -15.1300000000
9.4730500000 -26.9941355000 -15.1300000000
-17.1015944661 32.2893423689 32.1837777778
-22.7809027601 28.2685361446 32.4377727273
-5.1898600000 48.2806000000 11.1200000000
9.3952000000 -23.5444784000 -15.1000000000
-49.0144231708 -7.3816729508 6.6200000000
-19.2714340502 29.7748067848 33.2254375000
-39.7575462412 29.1322888266 7.9700000000
9.4277500000 -22.1942345000 -15.1300000000
9.3709000000 -20.8445270000 -15.1300000000
12.5023161807 12.2529347917 47.7570000000
8.9813500000 20.7046315000 -15.1300000000
-23.0422790185 -44.8212922000 2.2700000000
8.9620000000 21.3045370000 -15.1300000000
-36.7416063313 21.2856234847 24.7815384615
8.8880500000 24.0041905000 -15.1300000000
-12.4116087588 -15.3333594013 43.8363333333
-35.2115673321 25.3603467114 23.2290909091
8.8753000000 25.5041680000 -15.1300000000
8.8471000000 28.9541230000 -15.1300000000
-16.6082798610 -40.5487137324 22.7200000000
-15.0784855077 24.1573558641 38.9986250000
8.8126000000 29.7039430000 -15.1300000000
8.8918000000 30.2544380000 -15.0800000000
-6.0053410000 34.1887000000 -13.0300000000
8.8432000000 31.8542040000 -15.0800000000
8.8601500000 32.4043255000 -15.1300000000
-12.5570822346 -12.7570520323 49.8200000000
-37.3947089115 -31.8845676538 9.2670588235
11.5298819659 38.1347840070 28.3209411765
15.0414313528 11.5590705659 49.1050000000
-14.5069599227 -14.9239922589 48.4782857143
-14.5039066820 27.7751572463 36.9260000000
-13.4641695633 -13.7148418912 48.5200000000
-40.5669660000 -30.0834760000 -1.7800000000
-13.1760325992 -14.2542290191 48.3200000000
-48.2571589493 12.4462992952 5.2057142857
-14.1474922518 -14.5871718344 47.8700000000
-42.8923109580 -15.7886982954 19.0057142857
-11.7000000000 29.8450000000 36.1840000000
0.3257603234 -26.2753948777 40.6483529412
-33.2901977373 28.3249723928 22.6914285714
3.7739725635 -1.8111672770 47.7020000000
2.4248983899 -6.0329324949 47.3660000000
6.5352460166 -1.7566268582 47.3747000000
1.8000000000 3.7200000000 47.5993333333
-17.1365118338 -17.9283657549 47.0565833333
-21.4278678848 -8.7803846761 42.2650769231
-18.5355846790 -41.0189556207 20.5427857143
3.0826758725 -7.4526107694 47.1624285714
3.8144718447 -7.4612580051 47.1036666667
4.5662887910 -6.8066580704 47.1299000000
-31.5778875467 16.7805150438 33.0200000000
5.9584864545 28.7724182522 38.4168571429
5.2887061116 -6.7696387727 47.0950000000
5.9718462933 -5.3280006701 47.1615714286
-41.8564077802 -6.7989987773 24.8000000000
-33.6100000000 -25.2025600000 25.5200000000
-3.9500000000 -20.6550000000 43.3525000000
7.3853092502 -3.8849102194 47.1612500000
8.7434135421 -1.7672412042 47.0270000000
0.3645715000 32.8995000000 35.6927500000
-13.6719017127 -15.6888069925 43.5135000000
-17.3085752817 -18.3956612550 46.8480000000
-43.7832416976 23.3879950318 6.4700000000
-48.3328000000 5.0101940000 11.1200000000
0.3143977951 -10.2680050994 46.8329230769
3.1340289480 -9.5357796817 46.8404166667
4.4652443437 -9.2382651492 46.8142000000
-44.5900027807 -7.3922218716 19.8950000000
5.9351605212 -8.0748671697 46.8354285714
7.2565584742 -7.3902828720 46.8130000000
8.4361317961 -5.6644259489 46.8200000000
5.2000000000 1.6700000000 47.5552000000
1.7932781771 -26.9890944038 40.0831000000
-2.4467110514 -11.0058571078 46.5596000000
-1.0749291476 -11.4841842729 46.4665454545
16.3901380877 21.2107413722 43.6700000000
0.3127654192 -11.5528272642 46.5294285714
6.5500000000 -4.5300000000 47.1593333333
3.1150438461 47.3259547554 14.3024166667
1.0491181502 -11.5392202503 46.5050000000
-28.8815757384 40.6591387668 4.3700000000
-40.0764469422 30.3481647774 0.8985714286
1.7873434573 -11.4957059948 46.4853846154
-10.2385440932 -34.1722007419 33.3092500000
3.0898999850 -10.9995710548 46.5183636364
37.8224374473 32.8724014794 3.6200000000
5.9849261855 -9.5648269696 46.4971250000
7.3197182044 -8.8436068280 46.5257857143
-10.8337169390 -49.2760216665 1.6700000000
-24.2580650218 19.9980583727 36.8195294118
10.8202367421 -3.9075108391 46.5885714286
19.4355065821 14.6768193660 46.3700000000
-41.4157603135 -19.8856694994 18.4200000000
-15.0557042928 38.0603685143 26.8792000000
33.6284800000 -37.8796000000 -1.1800000000
-17.8941526775 -19.1067370995 46.3305000000
-22.6704940603 -24.8418577811 35.1258333333
-2.4515921937 -12.3267883096 46.2516666667
23.1499830514 -19.7810152188 37.8200000000
-1.7056087638 -12.3143626195 46.2448181818
-30.2640355901 24.6606867300 29.4884545455
-0.3766515560 -12.8646242232 46.1971818182
0.3059329254 -12.8956512677 46.2206666667
4.5061441914 -12.1107914309 46.1913333333
-5.0771540000 -37.1728000000 31.5200000000
-41.3682446572 -0.5334446397 26.7200000000
5.8854535812 -11.4165673247 46.2404000000
6.5741734852 -10.9266803660 46.1815454545
7.9108143168 -10.1242059577 46.1962857143
12.0017009205 -5.2065632098 46.1572500000
-45.6277874007 -8.0349060544 17.5200000000
-10.9031851464 -41.1829830663 24.7181333333
5.2840597572 -43.9708014764 21.9900588235
-29.4497703983 30.2214588126 25.1490000000
-17.0067087124 -18.0620539895 45.7700000000
-40.6420000000 27.2571380000 9.9200000000
-11.2469130014 -11.7986405038 45.8200000000
-10.9088587326 -11.5548672827 45.7392500000
12.8859275221 39.9810202487 25.2907500000
-3.1720674360 -13.6818445016 45.8780000000
16.2190177916 47.6324766011 -1.7800000000
-0.4098746509 -13.8234882065 45.8908333333
2.4607899002 -15.7696676045 45.2418888889
1.8023732608 -13.7651706522 45.8896428571
1.8283880000 -42.7832000000 24.6000000000
2.4577688262 -13.7055210899 45.8741818182
3.0671815726 -13.7155584976 45.8713571429
-0.4142567474 -18.4901110954 44.3904000000
-39.6805080824 -31.3036923620 -1.8800000000
-38.5837355075 -28.9053629168 12.7200000000
5.2889404712 -12.9611633920 45.8032142857
7.2667198581 -12.2391782252 45.8180000000
13.6787314945 -1.1006470053 45.9470909091
21.1462665864 15.9387079856 45.7700000000
-11.2062777299 -12.0033982344 45.7245000000
-2.4608939342 -14.4898441653 45.6293000000
9.4534891098 -39.7328374436 27.4733571429
-1.7573117853 -14.5046963637 45.6493750000
0.3471932378 -27.8835125480 39.6192307692
0.3278669293 -15.0065000407 45.6191428571
-30.6227064268 -19.4869370648 32.6717500000
10.1335797491 35.4351440204 31.8018181818
5.1805279267 -14.3012020323 45.4941428571
-47.5203318982 -16.4982730369 1.6700000000
5.9937496816 -13.7284102168 45.5721111111
6.5579991435 -13.6690155544 45.5491818182
-22.7935453620 -35.4288023001 25.3792352941
-8.6101400000 -48.3634000000 9.9200000000
6.5760504620 -13.0606664632 45.5873000000
12.3188572854 17.1967468908 48.5236250000
8.0283827872 -12.8633424591 45.5228750000
-19.9963949270 41.6579061076 17.7294500000
8.0833003832 -12.3238231946 45.6857272727
-30.9162905406 -40.0540274313 -0.4300000000
14.3435228323 -3.9425562634 45.6440000000
14.2859102005 9.7111954906 45.7550000000
20.2714743818 15.5378187458 45.6200000000
-15.6640669799 -6.7239434211 44.8702727273
-15.9272224909 -17.0568846286 45.0200000000
-14.9536799750 -15.8540601461 45.0450000000
-13.7095335346 -14.4291164615 45.0760666667
-15.6563592398 1.7328245922 45.2694285714
-12.2109402991 -13.0780567623 45.0753571429
-12.0205693894 -12.5118136993 45.3200000000
-1.0290622742 -15.8263186085 45.2946000000
-31.7399102281 13.6526238530 34.2200000000
-0.4280584253 -15.8377146538 45.2944615385
0.2995237061 -15.9676544692 45.2860000000
-10.7358956787 49.0204012210 2.2700000000
1.7415124847 -15.8120313817 45.2719285714
-26.2377496883 -42.4635404605 5.8563636364
4.5330082446 -15.7594470919 45.1118000000
4.6588400929 -15.1997631780 45.3063750000
-32.3950945530 -37.2164533894 8.4950000000
5.8669542590 -14.9745458868 45.2066666667
8.7388640127 -13.7298996382 45.0727500000
-19.2261251911 -20.7419086571 45.0857333333
-12.2828840531 -13.6790140733 44.8082500000
-33.5041502415 -33.4976726886 14.9200000000
-14.9978239244 -8.2071578924 47.7200000000
-11.5397300774 -13.0253580534 44.9763750000
-5.2169338278 -15.8218693678 45.0298571429
-19.2707340080 -44.4076377856 12.1700000000
-40.2401571305 10.7499462337 26.0342857143
-0.4542206596 -16.6058368501 45.0566923077
-39.4790028231 -23.4832482420 18.4450000000
1.0390756444 -16.6110187534 45.0493571429
1.7672668229 -16.5799940684 45.0400625000
-16.5015674578 -47.8020217909 -0.4300000000
3.7975254726 -16.5135441725 45.0221428571
4.5362056321 -16.4451053756 44.9186923077
5.9185099255 -15.7374988082 44.9532500000
3.0530494398 48.2001894113 11.4964444444
6.5847801730 -15.7047070176 44.9210000000
-13.1349708346 -42.6011531891 21.3630000000
-12.8934769720 -14.3225397768 44.7200000000
-33.8843926761 36.7333471925 3.7600000000
-1.7273190679 -17.3200422898 44.7833636364
-18.6183192138 12.1693108036 42.6295555556
-37.9034668216 -22.0200284165 22.5700000000
-45.5618008861 -3.2414392881 18.9800000000
-1.0490970599 -17.3289589183 44.8080000000
-0.4305784984 -17.2582754186 44.8290909091
30.5500000000 21.4700000000 31.2760000000
0.9889416765 -17.6686434962 44.7176666667
1.7707837887 -17.3498155199 44.7582500000
-17.5444152567 45.4517278792 10.5200000000
-40.7738525889 19.9073539622 19.6325000000
3.7347461721 -17.2859398998 44.7369000000
-0.5055720000 34.2602000000 -11.7800000000
16.3611906862 -38.6760327375 25.8800000000
-12.1535735098 6.5707667238 45.9023000000
23.6175720000 -39.8517000000 17.9170000000
-26.0725491488 -2.5224155197 40.5325000000
4.4725060501 -17.1382671258 44.7101666667
-41.1525318059 -0.3245084860 26.9342857143
-33.7333292150 -19.7914454188 29.4200000000
4.9726055753 -16.9784763225 44.7225000000
1.0373319257 -50.5869197112 0.9350000000
-20.1237794840 15.0319500382 41.1067000000
5.2825980833 -16.5560402342 44.8154000000
-28.6263567346 28.4558478214 27.6650000000
6.5621124108 -16.3203277367 44.7630000000
23.2388634268 -44.9587343601 0.8825000000
-15.7482244172 34.0728432776 31.1214615385
7.1410941175 -16.2547462858 44.7200000000
7.3044725794 -15.8509500181 44.8047000000
8.5522167945 -15.5057700586 44.7495000000
10.6476329381 -14.1017439967 44.7200000000
11.3820330236 -13.5167118786 44.7325000000
-3.1917716990 -26.1640274537 40.5423000000
17.0354862780 2.4818873393 44.8072500000
17.1761308521 3.0983679333 44.7507777778
-6.0026116374 -49.3460351702 7.2000000000
-36.8135866980 -31.9964282355 10.6815384615
1.7741784059 19.3237306787 43.8823333333
15.5314206483 8.5821371264 44.7197500000
-19.0814023553 -21.0717665230 44.4200000000
-16.5784347840 -17.7983834708 44.2700000000
-15.8766117303 -17.1546443021 44.2485714286
-15.6356511041 -16.7276024093 44.3450000000
-13.7302327260 -14.9275220800 44.1989000000
-12.9968828757 -14.4143113150 44.2516250000
-49.3981263752 -0.4092322754 7.9584615385
-12.2781171176 -14.4748254395 44.1818000000
-3.1945246209 -17.9568006391 44.5010000000
11.4907330065 -49.3873327346 -0.4300000000
15.3267424218 -48.3214945877 -0.4300000000
-1.0457313089 -18.4611533725 44.3441818182
6.5944130000 34.3053000000 -13.0300000000
0.3173524312 -18.5093956962 44.4133571429
-43.5566770831 8.0376818599 21.7290909091
-23.5172190829 -36.9639292170 22.6955000000
16.4250000000 6.5950000000 44.5720000000
-48.3072216373 3.0959058210 11.7200000000
1.0219414046 -18.4776488380 44.3792307692
-41.7669615862 19.8990453641 17.7430769231
1.7341330139 -18.4009382824 44.4053846154
-40.4612504705 -29.2505931983 5.1430769231
-47.8126422808 15.6517957672 0.9414285714
4.5567619203 -17.8864557545 44.4123636364
6.5741981367 -17.2430329780 44.3492857143
-19.3255981440 -20.8625459322 44.2325000000
10.8330212381 -41.7485443605 24.0491304348
-34.0507975131 -1.0720474215 34.7200000000
-5.1943928895 -17.8655618831 44.2666666667
-3.1968747817 -18.5583639730 44.2985000000
-12.9609011542 -45.3749091437 15.6351578947
13.1161507258 18.2962351999 46.3700000000
-1.7590878522 -19.1521033970 44.0896363636
-1.6615173167 -18.4884078870 44.3228333333
-1.0974535770 -19.1155052249 44.1472222222
-9.3295000000 31.1951480000 -15.1300000000
-48.3226000000 -2.1900040000 12.0200000000
0.3347797518 -19.2239693529 44.1166363636
1.0359097847 -19.1453323144 44.1555454545
10.6755539915 -25.3662219584 39.8864285714
-32.3363780725 23.9459906599 27.9200000000
2.4551460376 -19.0887996863 44.1135000000
-17.4695427827 -41.2993613422 20.7915000000
3.0716685744 -19.0751691231 44.1245000000
-15.1446000000 28.5402490000 36.1215000000
28.0595175572 -19.1593532352 35.0313333333
5.2604807591 -18.4585371521 44.0800909091
6.0123606448 -17.9939941893 44.1733333333
-26.1141265389 -31.6778613613 27.3200000000
41.1590900000 23.7328000000 14.4200000000
6.5983016586 -17.9666839759 44.1077000000
7.2998034270 -17.8911127971 44.1080000000
8.0340430142 -17.2552341803 44.1782000000
16.8145424118 -9.2990134442 44.0610000000
-22.0887239614 12.9107611995 40.8308461538
-31.8676464619 -3.2107114470 36.4700000000
21.0534354868 16.0304317560 44.1200000000
-9.4542868470 -33.2145338776 34.3598750000
-18.5814511863 -20.5513088218 43.6700000000
-42.9319628800 -26.2952026482 1.6700000000
-18.3370433208 -20.0841619069 43.6700000000
-47.5864467035 -14.5457436216 5.9200000000
-16.7623622278 -18.3021579545 43.6700000000
-16.4535434298 -17.8085364523 43.6700000000
5.2438906354 -22.7449022869 42.1768750000
-15.8286084149 -17.1179591285 43.6533333333
-13.6554104514 -15.1847900154 43.8134444444
-7.9419440000 -34.7249000000 -7.4800000000
21.3378309188 -45.9423662918 0.1700000000
-4.5966852069 -19.2895789832 43.8045384615
-3.9519622591 -19.4343998120 43.8249090909
-3.1934407462 -19.9616630822 43.6718750000
-1.7206872169 -19.9663489877 43.6929285714
-14.2516532234 28.7989477944 36.3221666667
3.8404805167 -37.3018341913 31.5068571429
-0.4260703217 -20.0087725427 43.7596666667
-22.2961647492 44.6735854482 4.2200000000
4.5542387490 -19.3457650205 43.7967692308
-35.1900858622 -36.0027247764 2.2533333333
2.4483760000 -41.3828000000 26.7200000000
-36.0345104633 -24.1773880706 23.2950000000
-37.6850753238 -25.7477727603 19.1700000000
5.3070197261 -19.2657998979 43.7640000000
7.2828569322 -18.6197072795 43.7910833333
7.9984582628 -18.5021003556 43.7106923077
-19.2943385454 29.0199853933 33.8277647059
-14.4139608022 -16.4297529564 43.3873333333
-5.2790572130 -19.2593801348 43.7366428571
-17.1586489996 -12.9998629844 48.5608000000
-4.5666708853 -20.0227979316 43.4832500000
-3.9104550971 -20.0674252182 43.5720000000
-2.4809840602 -20.6074978554 43.4360666667
-29.9003317520 -31.9882537473 22.7197500000
26.6446820000 42.7144000000 -1.7800000000
-1.6953982583 -20.6767577208 43.4378461538
-1.0700983002 -20.5602412208 43.5064000000
-31.0987403749 24.1443174499 28.9955714286
-35.3903066707 -34.0221287997 9.3350000000
13.0500000000 -11.7800000000 44.5660000000
7.3062753617 -40.7338280350 26.6888571429
-0.4296779473 -20.7312332151 43.4934285714
-6.8250000000 1.7200000000 47.5330000000
1.7572459961 -20.6269310610 43.4381666667
-5.9241029279 -38.1221457941 30.2019444444
2.3768050134 -20.6214167851 43.4661000000
5.9105881336 -19.9045836883 43.4403636364
7.2831522425 -19.3271699561 43.5389230769
-48.1339033428 14.3261483170 2.2836363636
9.4055481866 -18.4744616454 43.4905555556
-32.9903412127 10.5733497477 34.2200000000
17.6900410376 -11.4580159473 43.3712857143
-42.0886048642 -20.4919732787 16.3400000000
18.3364931020 -10.1462339498 43.3584000000
17.5480522709 11.4741366524 43.4210000000
-0.3267160000 37.7854000000 30.9200000000
-18.5525405566 -20.5316714848 42.9628571429
14.8751720161 -40.7368140105 23.7617500000
32.2910112129 -27.5477587237 25.2200000000
-2.4141251098 -50.1438488636 4.3700000000
37.0500000000 24.2200000000 21.4570000000
-18.0470538720 -19.9137622764 42.8600000000
-17.1395261111 -18.6476599290 42.9200000000
17.9439556652 34.8241087130 29.1622500000
-16.4175416878 -17.8354924208 42.9200000000
-14.4425753139 -16.5376044023 42.9529166667
-13.7298117785 -16.4799128274 43.0976000000
7.2299438183 -31.6591241673 36.3210000000
-5.2439027149 -20.7003500307 43.1408000000
-3.9199175335 -20.8546909360 43.1764166667
-22.2533543678 -16.7463876172 41.5200000000
31.9890415671 -5.3602217100 36.0936666667
-2.4518858134 -21.3795320078 43.0485714286
-1.7734470240 -21.2887960488 43.1057000000
-7.6144921011 49.6324740955 -1.1800000000
0.3303554629 39.3602158493 28.9417647059
-1.6422470140 -21.0484517982 43.2200000000
-10.1687500000 -7.9987500000 46.2662500000
5.2237784754 49.7360229377 3.0023529412
-1.1043788672 -21.2791125322 43.1422222222
-11.6595720958 -36.3471236009 30.6192000000
-0.4297649525 -21.3396952331 43.1385833333
5.9698652896 -48.7023046735 10.1000000000
0.3129854662 -21.3914677037 43.1855555556
1.7890265505 -21.3081433170 43.1233571429
-49.3462629287 8.7485766951 3.0387500000
-46.2346008370 -5.9348457628 16.8200000000
2.4775752589 -21.3311856798 43.1154545455
-46.0828267924 -20.0732713124 2.2700000000
3.8108805990 -21.3760833935 43.0420000000
5.9594732440 -20.6747641555 43.0650000000
18.9235994654 -35.8458067658 27.9200000000
7.3360000260 -20.0856050288 43.1599090909
8.0510772258 -19.9932359646 43.0336000000
8.7700557015 -19.4071438879 43.1889090909
21.8365863801 37.1332753550 23.7200000000
9.4206508125 -19.2224296392 43.1513000000
10.0658370732 -19.3040939651 42.9895625000
-22.9706151911 -7.4361041856 41.7186666667
10.1957573347 -18.7507459687 43.1700000000
-22.0357431877 13.6336000736 40.6763333333
-44.6789664405 20.7006759355 8.5700000000
15.9807915208 -13.8193167614 43.1725714286
-16.7367536487 -18.3274610636 42.7700000000
-5.2245571281 -21.3322668764 42.8460000000
-3.1778481840 -21.3428664901 43.0625000000
-1.0975216266 -22.0024264332 42.8345833333
-26.2517910042 -43.1329010921 0.9430769231
1.7633923323 -22.0406735936 42.8431250000
3.7958478081 -22.0523483125 42.7586875000
-27.8306034475 -37.7057934292 16.3967000000
4.5879575683 -21.4163036465 42.9126363636
8.0146307392 -20.7316274900 42.7670666667
-38.7343911527 -28.9720793679 12.1400000000
20.4742089670 15.3375024658 42.9200000000
-16.0678971017 -17.7230926551 42.6200000000
1.6532165935 -32.3243660926 36.3061666667
-5.9658494392 -21.4048940337 42.7421818182
-2.4568723134 -22.0816431654 42.8101250000
-10.2055846583 -31.9255964756 35.2845000000
-1.0595199127 -22.5165770337 42.6226666667
-0.3848733494 -22.5599259057 42.6590000000
-27.6298467148 -34.5836721137 21.8863684211
-43.3773806391 -12.2956549581 20.1200000000
1.6634335652 -22.5060723830 42.6258000000
5.2124603041 -21.8739379032 42.6237500000
-36.9727860000 32.0769926667 9.5200000000
6.5522784798 -21.5019491000 42.6816000000
11.5418527246 -37.4605776303 29.5707058824
2.4250000000 23.7200000000 41.7220000000
7.2798023563 -21.4100776160 42.6336000000
-14.3348803392 -47.4159587421 7.9700000000
9.4475409871 -20.4622733101 42.6200000000
14.0705846818 -17.7016866685 42.6166666667
-18.5718805689 -20.2458284524 42.1485714286
-17.0576118175 -18.5939978079 42.1914285714
3.1395682096 -43.8266243478 22.6976428571
9.6361328465 -36.3407022736 31.2720000000
-16.3730861340 -17.9762476307 42.2216666667
-15.7621570622 -17.9320615202 42.1042857143
24.0506658266 44.2543084998 -1.7800000000
-6.0495328579 -22.2092795365 42.3777000000
-3.8975318301 -22.8008279610 42.2690769231
-37.4926429790 31.0822838998 10.6700000000
-3.2068497634 -22.8650741803 42.3246923077
1.0528040000 32.8735000000 35.7200000000
-16.5248821067 46.0509565740 9.5200000000
-1.0460333979 -22.9960954357 42.2902000000
-7.5426500522 -45.5470939565 18.0200000000
1.0101885830 -23.4988003335 42.1182000000
-14.7000000000 44.7200000000 15.1210000000
3.8222654074 -22.8502870661 42.3357142857
4.5451461394 -22.7561158184 42.2351428571
-17.2013415889 27.6178387344 35.9469285714
5.9661722967 -22.1829404724 42.3824545455
-33.5001417363 -34.1907863113 13.6485714286
8.0313117821 -22.0946466124 42.1396000000
22.0966777835 -6.0445061309 42.3636363636
-5.2172820112 -22.8071381578 42.1474117647
-3.8770133221 -23.3663419691 41.9936363636
-2.4513866286 -23.5254915168 42.0544615385
-1.7364477844 -23.5341892901 42.0464285714
-1.0802107933 -23.5738660952 42.0505454545
1.7849487632 -23.5482859695 42.0286428571
4.5389360695 -23.3054356250 42.0037000000
-8.8066819813 -49.6961800685 1.0200000000
5.9002735883 -22.8284606275 42.0695833333
6.5908884135 -22.7389702725 42.0554166667
9.3829707688 -21.8908301543 41.9737500000
-46.9916192028 -15.7746707257 7.1450000000
10.6662797053 -21.3086778699 41.9932000000
11.9222909242 -20.4713061354 42.0200000000
-18.4934243193 16.2429410337 41.3754285714
19.7161624024 -13.4415375833 41.9520000000
21.0565050317 -11.4030437469 41.9583333333
-1.7399705206 -32.6843716316 35.9815454545
21.6927335561 -9.9061714388 42.0200000000
-50.2553961820 2.4359426310 1.6700000000
-17.6731559666 -19.5746541217 41.6200000000
4.4887609407 -48.7146521787 10.6700000000
-17.2516334618 -19.1625853881 41.5745000000
-7.4326656139 -22.9663802076 41.7331111111
-22.0819540128 -15.1011872884 40.7395333333
3.1500092015 -43.3428755337 23.4496666667
-5.9402361433 -23.5031583006 41.6828000000
-4.5906388642 -23.6981779327 41.6765555556
15.0284671856 -40.9305625137 23.2855625000
-2.4106763240 -24.2354264156 41.6613571429
-12.2439290178 -45.2775201333 16.3793125000
-1.5812560000 46.8682000000 16.2200000000
6.5744370016 19.2789950984 43.5372000000
-1.7522064826 -33.7694381019 35.0768000000
11.9808750607 -42.0632962253 23.1200000000
-1.7011809293 -24.2273960354 41.6600000000
-48.6275187982 3.0445174324 10.6700000000
0.3479929962 -24.3839107213 41.6887000000
-40.4593196934 -2.5369996242 27.4700000000
-39.9160000000 27.2614940000 12.0200000000
1.0442699950 -24.2772267571 41.6846428571
1.7757152478 -24.2367974689 41.6746000000
-26.1788076913 -31.8330334694 26.8707142857
2.3920864204 -24.2244001712 41.6706000000
12.3826217058 47.4312131506 8.5852000000
3.0888816188 -24.2412998199 41.6202307692
-48.9120191026 -5.3152297549 8.6600000000
3.8382712718 -24.2166962584 41.6169411765
1.0888334918 24.6559684230 41.3614615385
4.5527122328 -24.2660234489 41.4743529412
5.2484005094 -23.6213712634 41.7053846154
-18.0050743431 0.2562597299 44.4901111111
7.3171065292 -23.4850071661 41.5206000000
8.0316892813 -22.8971950573 41.6634615385
-48.0857240175 -1.1134778723 12.8000000000
8.8398377338 -22.8631909214 41.5162307692
-11.5850649089 41.4318227579 23.8455833333
18.0806207640 -15.8670338821 41.7702500000
-8.0260467533 -23.3913856596 41.3942222222
-48.9707234457 10.3237862614 3.8200000000
-7.4128910578 -23.5299755572 41.4462000000
-8.0739322040 -49.8675208034 0.9023529412
-11.4664966596 -40.7207882230 25.2200000000
-32.5591397806 -38.2873770085 3.0200000000
-5.2331074698 -24.2224203491 41.3698000000
-0.3974021731 -24.8769616437 41.4174000000
0.3170025133 -24.9050773264 41.4025000000
-44.9110034566 -20.5756646090 7.9200000000
8.0519800380 -23.4685768927 41.3884166667
8.6449065062 -23.4728838001 41.3213000000
-8.0413011086 -42.3467225203 23.9925652174
10.6692622884 -22.6489404760 41.3373333333
13.4576095357 -44.2227074601 18.3200000000
-17.2207883289 9.4648453870 43.8151250000
-36.2554781752 29.8682406327 15.8075000000
17.0267141206 -18.3591640055 41.3106666667
21.0298426880 -13.4893797210 41.3790000000
-9.3661103282 -20.4697611397 42.6120000000
-7.4749328193 -24.2170399494 41.0555384615
-6.0105671083 -24.5296696601 41.1155000000
-5.2548480516 -24.8673419669 41.0618461538
-4.5524303473 -24.9157020457 41.0878000000
-3.9256121246 -25.0364852054 41.1058888889
23.5500000000 -18.0300000000 38.3200000000
-2.4133867261 -25.6013834799 40.9391111111
-1.0770479281 -25.5687986606 40.9718750000
-0.3965710350 -25.5879559318 40.9808421053
19.5500000000 -32.7800000000 30.6100000000
-10.8962831540 -22.1075410457 41.4696875000
0.3049028921 -25.5474084928 41.0566666667
1.7854610683 -25.5748145556 40.9429444444
2.4549737826 -25.5802899811 40.9068125000
3.1008790590 -25.5839244646 40.8830000000
-30.4885966286 -24.2146124560 29.6233888889
-44.6052079201 -23.5268498365 0.1700000000
-9.2891500000 29.0953145000 -15.1300000000
-8.7386416031 -36.1489168520 31.7109473684
3.8860322445 -25.0371178897 41.1060000000
5.2902834946 -24.8622910947 41.0070909091
-15.1646265474 -48.2681884454 -0.4085714286
7.3083571629 -24.4114606793 41.0598000000
10.1029926945 -23.4712217664 41.0125625000
9.4727414286 -9.5695428571 45.9251428571
23.6666770758 -9.0248061352 41.0940000000
-16.4761471951 -20.0318366782 40.7442000000
-8.0929354583 -24.2423989626 40.9663571429
-7.4007984167 -24.8497560094 40.7370909091
-6.6379933451 -24.9583051021 40.8316000000
-21.4119694986 -28.3498110241 33.6195000000
-5.9570268789 -24.9022657994 40.9702307692
6.5882411243 12.9864147836 45.6245000000
11.4672616230 -48.8794751262 4.3836363636
-4.6141794471 -25.5424096414 40.7818000000
5.2451270224 -25.5690248294 40.7036470588
-42.9819249818 -0.4009731945 23.9847058824
-26.7753770433 25.3009570115 32.1288000000
-1.0465057444 -30.7067422090 37.5121428571
31.4164677925 1.7245738838 36.9256666667
5.9017818381 -25.5864717948 40.6198000000
-31.9337840516 -38.9602238698 1.6700000000
37.6389337861 -11.6814517795 29.1382500000
8.0438991204 -24.8575696359 40.6651111111
-5.9609482626 -25.5128279399 40.6730000000
-4.5072271169 -26.0092289724 40.5123333333
-4.5899025078 -41.5702321040 25.9960833333
-35.1125729631 3.1299913272 33.6200000000
-8.0547773521 -27.7088223108 38.8610000000
-1.1174152656 -26.2589093253 40.5493000000
8.7439066508 -24.8771799891 40.5416666667
-41.7581731449 -28.3728156185 -1.1800000000
14.8626264790 -21.8480270823 40.5227500000
17.5977964275 -19.7145879104 40.5200000000
-14.4500000000 -45.5300000000 13.5820000000
19.7025956626 -17.6399962946 40.5200000000
-32.1660001162 -15.1115729186 33.3200000000
-7.4278028700 -25.6632245792 40.2604615385
-21.8468856628 43.3766438338 11.1200000000
3.7577710000 -34.6072000000 -13.7800000000
-6.6734438883 -26.2330696743 40.0748000000
-3.9500000000 -11.5300000000 46.3476666667
3.8138104872 -38.2657541539 30.3860000000
-31.7430353582 -13.6688131758 34.2200000000
-4.5820684981 -26.3992510147 40.2031818182
-2.4259265472 -27.0132669653 40.0928000000
-28.5313129421 -38.4357942448 13.5575000000
-50.2977763419 3.0439434856 0.9200000000
5.3833333333 -2.4466666667 47.5480000000
-1.7131684761 -27.0233016388 40.0509411765
3.0877391799 -26.9755220310 40.0878750000
5.2832032029 -26.3215634205 40.2057142857
5.9408540549 -26.2731040548 40.1620000000
7.3347250068 -26.2083009959 40.0453076923
9.4084746615 -25.5366291021 40.0634285714
0.3000000000 5.2200000000 47.6093333333
11.5322443543 -24.2853712288 40.1634285714
26.3930655135 3.7683577015 40.2615000000
-5.9217517601 -26.8902945594 39.9470000000
-7.3426205000 -34.6085500000 -6.1300000000
-5.2169502338 -26.9436109812 39.8964000000
0.3084160755 -27.4607347326 39.9041666667
-45.4806000000 -21.6736540000 0.9200000000
5.9590571153 -26.7372595345 39.8957500000
-35.0605547994 33.6396840597 11.2200000000
13.3824805716 -23.9227588442 39.9200000000
15.5433453418 -22.6093580588 39.8896000000
-46.4521346329 3.0884877333 16.9836363636
-24.4500000000 16.5950000000 38.2195000000
-25.2567940000 42.6490000000 6.3200000000
18.2619603482 -20.4340339881 39.9200000000
-23.9533408146 -38.6647438276 19.5200000000
-10.2568969663 -25.7362977084 39.6258571429
-8.7199044992 -26.3502679415 39.6157857143
-5.9355344978 -27.2497562742 39.6001250000
-3.9251399066 -27.7155396384 39.5001764706
-24.9263005014 -8.0611557621 40.6290000000
8.7356144999 47.8910145435 10.0659230769
-10.7513905144 -35.8063679652 31.5226000000
-38.6703407161 17.7495138849 24.6950000000
-3.2012157507 -27.7866443882 39.5351666667
-2.4656055609 -27.7828834291 39.5986000000
-1.7217332005 -27.7708947523 39.5626000000
-1.0644963587 -27.7825598651 39.6050000000
-0.4396906946 -27.8269214918 39.6025000000
-3.9017211518 -38.2737711449 30.3400434783
-29.7324550199 28.9685959592 26.0772727273
29.9812900000 29.1828000000 25.4720000000
4.5638364362 -27.7445251382 39.4174705882
-49.8674625606 7.2326634358 -1.1976470588
-16.4442873401 46.4794944237 7.9700000000
5.3227599116 -27.2076738108 39.6334285714
5.9080965865 -27.6817632329 39.3886428571
5.9948550449 -27.1933798319 39.5880000000
8.0421532120 -26.9974785866 39.3558333333
8.8084918219 -26.3796259030 39.5851666667
-48.3743425368 0.3201216481 12.1200000000
-7.3422110000 -34.6768000000 -12.4300000000
-7.4661024292 -27.0096818820 39.4294117647
-8.7023733186 -49.6776471385 1.6866666667
2.3781439336 -50.5642447587 0.1700000000
-6.6603934135 -27.5702330233 39.2737000000
33.5500000000 -18.0300000000 30.4570000000
-5.2114698067 -27.7669474221 39.3243125000
-2.4397182218 -28.3539553711 39.2439090909
-1.0594957880 -28.3350756540 39.2498888889
5.2411841466 -27.7379989006 39.3502500000
2.3000000000 4.7200000000 47.4580000000
-20.2863363521 -13.4143898098 42.9200000000
38.9972224417 -24.4753103725 18.6200000000
-32.3244828923 21.1025169199 30.0200000000
9.4403320171 -26.7439023054 39.3406666667
10.7900613747 -26.2168285253 39.2801666667
-30.2516821044 7.2148463059 37.2015000000
12.8707378439 -25.4349094915 39.2443750000
17.0709432573 -41.4975214765 21.0752000000
0.3257716594 -32.3703423392 36.3476000000
14.1064667798 -24.7139654450 39.2385000000
-2.4969865303 -31.8528371818 36.6902857143
-4.0000000000 -9.6300000000 46.7398000000
-5.9148312279 35.9752963756 32.2920000000
19.7015210495 -20.5119360962 39.2355000000
-8.7995499067 -27.2726857840 38.9994285714
-5.2218446017 -28.4347833242 38.9204375000
-38.2186949981 25.4396668089 18.4600000000
-0.4576378226 -33.4035547009 35.4153000000
-38.9988386193 -5.3527073533 29.0450000000
-3.8987805592 -28.5104352593 39.0022222222
50.3816311028 -1.9824544712 1.2200000000
-39.3187673556 8.6050084885 27.9200000000
-1.0429367760 -28.6920196588 39.0200000000
-0.5481505910 -28.7361930909 39.0200000000
34.3878048506 -32.9935316995 14.8700000000
-17.1892745110 30.4229495031 33.7875789474
1.0199705849 -29.0352898074 38.8299444444
-10.0890118732 -44.9785109261 18.3893000000
-24.8597458882 43.7418603687 -1.7800000000
1.8562745000 -28.6720321249 39.0246000000
2.4861821008 -28.6858308389 39.0200000000
3.8653282533 -28.5951057718 39.0200000000
5.2560273454 -28.4253631617 38.9388333333
8.0719649959 -27.7376673504 38.8690000000
6.5734204082 -34.0063060766 34.3775000000
10.1163768576 -27.0354168230 38.9428666667
-45.4808281516 21.6015436514 -1.1800000000
10.7969140117 -27.0137343508 38.7514000000
28.5835852512 1.6645887573 38.9756000000
38.3175480017 -6.1299148751 29.7663333333
-28.8240980000 -29.4910000000 26.7200000000
-1.7296056698 -29.0721336083 38.7446666667
-1.0668584460 -29.0384960798 38.7869230769
-45.3754317560 -15.1750447169 13.6018181818
2.4612382737 -29.1129726591 38.6934285714
24.3543403766 -44.1177972844 3.0950000000
3.8240713303 -29.0523275910 38.6985000000
7.9819561561 -28.3970629785 38.5456666667
-2.4701783657 -36.6364987714 32.2920714286
-10.7730237914 -27.4642334335 38.4200000000
-7.9684097326 -28.3924770507 38.5099090909
-21.0194900000 -30.2122000000 32.1200000000
-2.5505780003 -49.0358315357 9.6200000000
-49.6534692544 -4.6819443149 5.2200000000
-7.3853670321 -28.4232083399 38.5596923077
-49.9877766158 -1.1303548338 4.3700000000
-6.6641185427 -28.8838571977 38.4352857143
-5.9006537321 -28.9671357510 38.4675555556
-12.6692140000 44.7946000000 16.8200000000
-25.0604309860 -13.7781835474 38.9609090909
-15.5558326458 32.2690849505 32.8737500000
-3.0388963368 -29.5127852571 38.4116666667
0.3847312799 -29.6193902134 38.4362500000
-34.9182265654 0.2704637525 33.9200000000
6.6080819621 -28.9387083705 38.4302222222
9.3441167022 -28.2333353274 38.4264000000
-30.1449209188 -16.9922313287 34.2200000000
-38.9337257866 -8.8478016508 28.3700000000
-34.0522917507 -17.2478136706 30.4450000000
22.5500000000 -8.7800000000 41.9470000000
15.5438931094 -25.3069171309 38.4120000000
17.5127566719 -23.9112556262 38.4200000000
25.2714561300 -15.5509497187 38.4200000000
3.7577440000 -34.6027000000 -11.6800000000
-8.3713608149 -28.7018121449 38.1200000000
-26.2038401555 -32.5118398971 25.9910588235
-5.9903876642 -29.2191461680 38.1886666667
-21.3859493153 -45.9224641600 -1.9300000000
-46.5293614189 -12.2675007067 12.7700000000
-4.5528843864 -29.8486501824 37.9682000000
-3.8987019126 -29.8287122030 38.0480000000
-2.4600226967 -29.9043261325 38.1219166667
-1.7598876246 -29.8820559744 38.1568461538
-47.4392057324 5.9397978108 13.5905882353
-1.0591997014 -29.8741005330 38.1802727273
1.7714492748 -29.9321842019 38.1232500000
-3.2271871692 -15.7473363061 45.2425833333
2.4575531142 -34.9490275107 33.9416250000
1.0433273477 45.9799775837 17.8907272727
3.8475148939 -29.8115156245 38.1036875000
5.2682249589 -29.7918161721 37.9505000000
-32.4872616347 -34.6335148846 14.8290909091
33.5500000000 13.2200000000 32.6650000000
6.6095612374 -29.7880745682 37.9057647059
6.6408046640 -29.2345169923 38.1141250000
8.0402419174 -29.1015984034 37.9770555556
-40.3022218643 -29.8149129574 3.7700000000
-17.7426439570 24.4713888835 37.7850000000
-45.1182388998 -17.8918682468 11.4200000000
8.7697353374 -29.0089722487 37.9471764706
-27.6410352225 -31.8783738143 25.3504000000
-3.9059236085 -42.6986060698 24.3200000000
9.4501593952 -28.5569081839 38.1260000000
32.8000000000 34.2200000000 14.3260000000
10.1489530104 -28.4457770777 38.0233571429
-14.3008426107 4.3989804194 45.5092000000
20.0409244053 -22.2504734199 38.1815000000
1.0352511813 -31.1767456770 37.2851250000
29.2010503510 5.2307249112 38.1577142857
-22.7291038508 -41.6544792779 14.9007500000
-9.4104845539 -28.9033140969 37.8290909091
-6.6334878798 -29.6414529359 37.9194000000
-3.1788843198 -30.2931279794 37.8316250000
-25.5281335455 -36.6458398035 21.1466923077
-2.4979518497 -30.3703847904 37.8286000000
20.6442502676 45.8942679022 -1.1976470588
10.0907341101 -41.8847372260 24.1040000000
14.2842230725 19.2956633888 44.9771428571
-32.1317200000 38.4286000000 1.8200000000
2.4758991114 -30.3175576446 37.8448750000
3.7774030359 -30.3075874652 37.7980000000
-14.4568637918 -13.7894292380 49.2280769231
4.5175276720 -30.2412963355 37.7745000000
-10.4500000000 -31.5300000000 35.5570000000
-44.0308000000 23.0366540000 6.0200000000
9.4013330621 -28.9658644017 37.8638750000
26.7098810286 -14.8634722218 37.8200000000
-41.7982266535 -7.4268032154 24.7700000000
-8.7138657599 -29.7797266836 37.3509090909
-28.1185794330 39.9153065696 10.0200000000
-8.0210686734 -29.8394361717 37.4102857143
-7.3739992039 -29.8994402264 37.4818181818
-45.4365366971 -9.5972336652 17.1200000000
-5.2004447914 18.2934380285 44.1120000000
-6.7545646205 -30.0566214602 37.5361666667
-4.5344828883 -30.5624660849 37.4205714286
-1.7065646938 -30.7099295360 37.5339090909
-0.4720452743 -30.7558890992 37.5155714286
1.8059704207 -30.7281556995 37.5151111111
2.4680608143 -30.7088738598 37.4935000000
-20.7059735017 -43.2392965014 13.5711111111
4.5499463441 -30.5863194820 37.4052500000
9.4115848702 -29.7434004073 37.2536000000
-48.2879657054 13.7935178385 1.8200000000
9.5672386264 -29.3097937343 37.5592000000
-4.5769146188 -37.5655376492 31.0721176471
10.8410235815 -29.0657550626 37.3775882353
12.3300699213 -28.4606549192 37.4017142857
-31.1202421509 -26.2854358026 27.4255384615
30.6051906865 -1.0631155838 37.5657500000
22.4200153760 44.1034640574 7.0200000000
-8.6689600000 -29.7930844000 -13.0000000000
-3.8776117165 -31.0581653543 37.1605555556
-3.1957670758 -31.1290485406 37.1464545455
-12.3250000000 12.2200000000 44.6035000000
12.9871854329 47.2964346687 8.5836363636
-1.0942924355 -31.1599852174 37.2476363636
1.6978555668 -31.1604844264 37.2333333333
-26.2546850217 -43.0035962697 2.2700000000
2.4231843311 -31.1873702186 37.1683333333
17.8038310971 42.1526167033 18.4304615385
7.3278572692 -30.3826101185 37.1979000000
-19.2043593868 -34.6226015605 28.9166666667
7.9768033693 -30.2895052960 37.1642857143
12.1952562519 -28.8378343195 37.2328571429
14.8880250275 -27.5351069995 37.1692000000
16.2370939910 -26.8422893277 37.1040000000
5.2710039823 12.8552775871 45.8298000000
-4.5829976069 24.8392005315 41.0383000000
-5.9944155371 -31.2628111727 36.7366111111
7.3456588353 20.5166622269 42.8608181818
-4.5754528658 -31.3649232590 36.8017142857
16.4351060116 -43.0792618200 18.4552222222
-3.1919645513 -31.4987598781 36.8847500000
-1.7682247048 -31.8488997179 36.6998333333
46.1803985888 -1.8379501294 18.0200000000
1.0524285741 -31.8783531140 36.6946000000
-47.1100406837 -18.5340524507 -1.9514285714
-10.9235077617 -19.2694594549 42.7782142857
2.3871264092 -31.8651943174 36.6679333333
5.2656590192 -31.2706662252 36.7985000000
9.5391665202 -30.0845123150 36.9200000000
11.6833910732 -29.2496696789 36.9180000000
8.6709932473 47.4786604830 11.5177272727
12.9710728328 -29.0759052540 36.7670000000
31.3878005643 3.0431093311 36.9217500000
-7.9914063004 -31.1863008749 36.4561333333
1.8482620000 -41.3674000000 26.7200000000
-7.3753816142 -31.2230336233 36.5037333333
-6.6801204940 -31.2045074502 36.6655000000
-3.1696047265 -31.9709251849 36.5014615385
-45.3345161953 -13.7615515479 14.8866666667
5.2665973605 -31.8471725483 36.4189090909
1.0396951629 49.6409105865 5.4200000000
-41.4174234553 -8.0805670113 25.2200000000
10.1667640905 -30.4898714666 36.4966250000
-39.8898790826 6.8093548642 27.6200000000
5.2576480000 -34.5777000000 -9.5800000000
12.3251162139 -29.7432053169 36.5190000000
-9.4543365966 -30.5559154457 36.5266666667
-8.6778589954 -31.0609839485 36.3963636364
-17.2241493494 18.5069680215 41.0382666667
-1.7568584128 -32.3266613617 36.3170000000
-41.6935518273 -20.0323831021 17.7387500000
-1.1022103286 -32.3385743830 36.3238750000
12.9464359175 -48.8423370906 1.6700000000
1.0715135818 -32.3552121833 36.3432500000
2.3768752594 -32.3144148159 36.3390000000
-14.6394825759 15.1128421603 43.2010000000
8.8000000000 3.7200000000 46.9146666667
3.1094027198 -32.2873639825 36.3456666667
6.5484605558 -31.7954969170 36.3333333333
9.4318989681 -31.0488898180 36.3200000000
-33.4675451242 20.6350753405 29.0700000000
14.9570090901 -28.8098702565 36.3182500000
18.2762759607 -26.7524803245 36.3200000000
-11.5537904241 -30.5760983554 35.9828461538
-7.4360129640 -31.9737027653 35.9254000000
-4.5911470384 -32.5564032632 35.8612500000
-1.0915194930 -32.6798788622 36.0142000000
-0.3971815677 -32.6953005465 35.9847500000
31.5226595021 35.0463207712 15.4700000000
0.3116811809 -32.7118433094 36.0371818182
-8.7550968611 -45.4374947838 17.8807272727
1.7865940730 -32.6649484373 35.9811538462
2.3971758839 -32.7056476475 35.9254166667
-32.0675694291 -36.9668589133 10.0914285714
-4.5315495248 -50.2330494755 2.2700000000
3.0789796017 -32.6376839063 35.9283333333
5.9175065241 -32.4469775117 35.8174166667
8.0250258537 -31.9300677100 35.8639285714
3.7820862257 -50.5483851298 -1.9300000000
8.7806556864 -31.8454166032 35.8241250000
9.4259154728 -31.3512999791 36.0123636364
-15.9100088597 13.7103522651 43.2300000000
-42.0872346253 -17.0389362514 19.5200000000
12.9311555238 -30.4231838966 35.7638888889
13.0170936020 -29.9491806876 36.0635714286
-11.6124347556 45.2330406601 16.3674615385
-21.3804175951 31.7537000425 30.3004347826
31.3578195317 -8.7788355205 36.1113333333
31.9550783043 5.2000730444 36.0585714286
-12.9142504967 -30.2907058702 35.7722500000
-20.8415005864 -12.3400893645 41.7179000000
-35.4548205018 -2.5160215407 33.2200000000
-11.4655053638 -30.9729223588 35.6976000000
-29.8847931124 -31.4229051182 23.3614000000
-13.0068852000 -38.4450216306 27.6233636364
-9.3888818116 -31.7185552931 35.6931428571
-47.9559201747 -3.9280404389 12.7700000000
-6.6757061014 -32.3506610456 35.7301000000
14.3007581015 -41.6876533362 22.6650833333
-5.9463441417 -32.4382406413 35.7834285714
-13.6489901754 17.0299194907 42.8160000000
-0.3784547571 -33.0597969358 35.7180000000
-10.1431873676 -38.8873115005 28.1943750000
-19.4649116950 -32.8587724660 30.6200000000
2.4021488600 -33.0426071405 35.6896666667
7.2217488593 -32.3489491481 35.7200000000
16.2899661758 -28.8620878041 35.7265000000
17.5510168057 -28.1665478679 35.7200000000
-12.9871271980 -30.6515743435 35.4197692308
-5.9918090000 -34.7357000000 -14.5300000000
-9.4992522221 -32.0333007597 35.3637272727
-29.5018082003 40.6496533389 0.8342857143
-8.8547140581 -32.1333510666 35.4454000000
-18.5700496044 43.2082931855 15.6590909091
-7.4027812748 -32.6629925450 35.2781875000
-39.7013804573 -8.1270079403 27.5533333333
36.3000000000 -25.7800000000 21.3400000000
-1.7141084088 47.2298944756 14.8448461538
-5.9650839546 -32.8449515990 35.4213333333
-8.7021000000 -29.7032800000 -11.6800000000
-4.6307193649 -39.7855000661 28.4187777778
-5.3632522002 -32.9392852957 35.4200000000
-15.7216502617 26.2843911240 37.4548461538
-4.5604983446 -33.2693134906 35.2530588235
-3.9223414735 -33.3231113320 35.2823888889
-3.1999159902 -33.3636592385 35.3083529412
-12.2732617555 -44.6569729624 17.7445238095
-44.5699876136 12.2318738649 17.7366666667
-2.5091953638 -33.4030102708 35.3657500000
-1.0516288852 -33.4005681918 35.3935555556
-35.2598037290 24.7078553291 23.8290909091
23.2802660616 -28.7664699890 32.1200000000
2.4764880160 -33.3785013112 35.3812727273
-35.8155126932 -28.8844875588 18.4485714286
4.4922382332 -33.3030953028 35.2524761905
-17.0543434758 28.0499647246 35.6920000000
-23.9418848738 -10.8882498428 40.5240000000
1.7878875805 39.3305377016 28.9520000000
-13.6756908582 -37.6287606926 28.3405625000
5.2261294214 -33.2325685702 35.2388888889
6.0129017319 -32.8324985863 35.4345000000
-17.6003792227 -9.7973345192 47.8700000000
-2.4957040000 35.7103600000 32.9558000000
5.2826292931 -38.2310694258 30.2692380952
6.6081520325 -32.7551902670 35.4421818182
9.5911463610 -46.1817218747 15.8600000000
7.3181504028 -32.6112147598 35.3652500000
12.4250000000 -9.0300000000 45.3610000000
8.7375449260 -32.4997696464 35.2344444444
9.4372989860 -32.1317773717 35.4013333333
10.0829260955 -31.9524977198 35.3549090909
23.1450400000 -40.7026000000 16.8200000000
-10.9284480342 -31.8482868224 35.1857857143
1.7605111965 -34.1222498928 34.7068181818
-30.5615033547 39.0175269179 6.4914285714
-8.7206097345 -32.4564884327 35.2372307692
-1.0788781489 -33.7650432679 35.0546666667
36.4722227055 -14.8091409651 29.4200000000
-5.8997284516 44.1271808464 21.0800000000
-0.4673387603 -33.7777097509 35.0633333333
0.3191273499 -33.8205247183 35.0620909091
-40.9875360997 9.3928276712 25.3700000000
-38.9330629064 -27.0446976967 14.8950000000
8.7924327165 28.0780215305 38.4983750000
12.2752877279 -40.4176770825 25.3838125000
-15.1349472622 -45.4701034674 13.6072500000
2.3972629953 -33.7441394975 35.1200000000
3.0383336392 -33.7331209563 35.0665000000
0.9767456494 -50.3688311529 3.0575000000
9.4293521445 -32.4453017610 35.1222222222
30.0500000000 35.4700000000 16.6120000000
15.0414388124 -30.3448162425 35.0682222222
21.7211762193 -25.9607310924 35.1200000000
23.8618333822 -23.9747304467 35.0130000000
-49.0537000000 3.6558200000 9.0200000000
26.0343932342 -21.7875212201 35.1200000000
-35.0319412666 -18.4129299915 28.8200000000
-10.9477977103 -32.0605919830 34.8200000000
-39.9066403417 -13.8503211404 24.9200000000
-10.3528097803 -32.2267337923 34.8200000000
-33.4321330138 12.1577628462 33.2342857143
-38.3024582445 -6.7363292730 29.5866666667
-8.0835078161 -33.3092892757 34.6477894737
5.8577395000 -34.5893500000 -15.1300000000
-5.9856060649 -33.5517536950 34.8002500000
-5.5758339545 -33.5727370061 34.8200000000
24.0663722266 -43.4609111631 7.8200000000
-5.2129280642 -33.9364019446 34.5729444444
-8.8330000000 -21.3037630000 -14.5300000000
-4.6043436281 -34.0021262192 34.5774000000
-43.6872519600 17.8103993240 15.5969230769
-3.9273431175 -34.0492854617 34.6277727273
-3.1807958055 -34.0809162987 34.6835000000
-27.6884904483 18.5111246743 35.2748333333
-0.4305099630 -34.1418517121 34.7357272727
-3.1782808843 49.7079538640 4.9866666667
3.1170062566 -34.0914959007 34.7079333333
-44.2958199860 -19.2674198809 12.1700000000
3.8109592948 -34.0926896718 34.6627058824
-30.2609283936 19.0302788342 32.9937500000
-8.7052060000 34.1500000000 -15.7300000000
4.5328576525 -34.0107095178 34.6100000000
4.5481802939 -40.1134614660 28.0809285714
5.2544698242 -33.9831844718 34.5506842105
5.8992067827 -34.0096764811 34.4722500000
5.9883974869 -33.5420026795 34.7938000000
6.7027000861 -33.5068320225 34.7847777778
17.2465772951 22.0560638887 42.1700000000
-44.4000939826 -17.1552821080 14.2700000000
8.7332673292 -33.2259350486 34.6255294118
11.5768665207 -32.1242360177 34.8098333333
14.3371760356 -43.8404859768 18.4490909091
21.0401597964 -42.1199944338 16.2200000000
26.0127472814 -30.2011104520 28.8200000000
13.0776848727 -31.5285460666 34.7805000000
5.2823859968 -42.3721053669 24.7350588235
-28.8414431068 38.4787994174 12.7700000000
31.3606854047 -13.1766252943 34.8022500000
10.4155768209 -47.6512542327 10.8200000000
-12.3379972737 -31.9305313092 34.6428823529
1.0567127336 -34.6335837789 34.3790000000
-42.6894279664 14.4720136651 20.1200000000
10.0050538192 -33.1914900847 34.3046000000
-7.3542235530 -42.9023615415 23.2887333333
11.5294289527 -32.6037726206 34.3901764706
12.2148337621 -32.4475441750 34.3520000000
-13.0059178104 -31.9478385569 34.3955000000
-4.6393308894 32.0599920247 36.0561666667
-11.5657915774 -32.5451923584 34.3590000000
-10.1622066079 -33.1178669618 34.2992000000
-29.5295662348 -39.3206977628 9.1400000000
-8.5823963248 -33.6884870083 34.2200000000
-5.2098139803 -34.4087717953 34.2200000000
-6.7500907933 48.2062190640 10.0006000000
-3.1587640048 -34.5589786928 34.2899000000
-4.6340866688 -34.4870767283 34.2200000000
10.1649794604 49.2071581943 0.1815384615
-15.1070480447 -23.4818496773 39.4936153846
-27.4683671990 25.9598878003 30.8586666667
4.5240703939 -34.5369940534 34.2200000000
5.2013154092 -34.4131324075 34.2200000000
8.0120149795 -33.8362326105 34.2118333333
-26.7936680038 -33.8071429973 23.8327777778
8.7571519634 -33.7240887648 34.2200000000
15.7585938732 -31.0306630762 34.2223333333
17.0661797305 -30.3018723363 34.2192000000
23.0857325008 -26.0437638133 34.2200000000
-17.1708298588 -46.7254557069 6.4700000000
-6.7303917667 8.7810716262 46.5497500000
25.2818209012 -23.9961678370 34.2200000000
26.6776013638 -22.4676896937 34.2200000000
-1.6656956000 -39.2898400000 29.3912000000
-29.0991296204 -2.5165860624 38.5670000000
-10.9057732193 -33.3182665203 33.8781764706
4.5417340325 -39.4503394115 28.9246250000
-6.6600816593 -34.6254428786 33.7325000000
-48.8917930239 12.2419839261 -1.7800000000
-4.5348800000 -4.6492824000 47.3340000000
-5.9432810643 -34.7607558537 33.7456000000
-24.8752973436 41.7937685755 10.7000000000
-5.2121918801 -34.8114615180 33.7931666667
-3.9113981592 -34.8319334489 33.9430000000
-45.8474144750 19.2438425072 5.8700000000
-0.4696041008 -34.9667319698 33.9651250000
-37.6725418605 -9.5033687040 29.6700000000
1.0538093783 -35.3010906083 33.6991666667
1.7409095153 -34.9481727172 33.9548000000
4.5461571052 -34.8169892026 33.8742500000
5.2786490412 -34.7923845409 33.8344117647
-46.5910639644 -4.6163182193 16.3815384615
8.7739423744 -34.0900298876 33.8466666667
-8.7815863048 -49.8600960020 -1.9300000000
