38.9660941902 40.5430932953 21.4474000000
33.4250772196 -37.0764427034 6.3333333333
37.6932947626 -30.4961179239 12.9500000000
-41.3635616236 -18.3178326139 21.9500000000
38.7853485429 40.8688575107 21.3828333333
29.3115321651 -40.6789077956 3.9666666667
34.9860870178 -33.8369765558 12.8000000000
38.3796259024 41.1248150236 21.4000000000
19.6026918828 46.1593901402 0.9500000000
37.8785000000 41.6744100000 21.5000000000
22.0899846547 -33.6757016496 29.9000000000
18.3891234530 -41.6336172600 21.3557142857
29.8494483033 39.7631298755 6.3500000000
12.0655295405 -29.1366558232 46.5500000000
-31.2686275739 -35.6948726725 16.4750000000
38.8663042670 33.7743943792 18.3500000000
24.2087000000 -38.6985720000 21.2000000000
26.0141000000 -37.5021780000 21.2000000000
-28.9724135673 -28.6517159674 29.1863571429
-15.9232004268 -40.9119213246 23.9000000000
43.3445000000 -24.3367860000 8.0000000000
29.0588559727 -35.0540984915 21.2000000000
48.4481855491 -8.8295513266 9.9500000000
48.3243982321 -10.6438006304 8.7200000000
-46.0036501777 17.0675876984 10.0000000000
-28.9395343531 -26.7727293489 30.9081000000
38.5445000000 -24.3271860000 21.2000000000
39.2339000000 -23.1285600000 21.2000000000
43.4866518553 -22.0069933093 12.3500000000
-36.3933716935 21.1592090236 26.9552000000
42.1709000000 -17.1344100000 21.2000000000
-20.6145959539 12.1405680869 43.7531818182
-21.3000000000 0.0500000000 45.1012000000
42.8002103357 -15.3895213097 21.2000000000
21.5082715709 1.3331728477 45.0170000000
43.4396136414 -13.7377378800 21.2750000000
45.2633112701 -4.6645025771 21.3200000000
-27.1326393272 -38.7811799511 16.5333333333
45.2922540709 4.3349881866 21.3000000000
-2.5591066155 48.6116022216 12.3500000000
-31.8495374269 -6.3735479361 41.2250000000
45.2598292981 -18.4317783449 11.7000000000
-36.0913235881 -2.2157232684 40.5666666667
-44.0441819572 -20.1737964310 12.9500000000
-37.9806672064 5.9654821604 35.1500000000
28.7542946639 40.5298263790 5.7500000000
-2.0175457979 -41.3754262591 28.0400000000
-10.4833333333 10.4333333333 47.5545000000
-42.2705821321 21.7981251375 15.9500000000
43.5520736139 12.7165141041 21.3411111111
-15.1527153242 24.0260014698 41.0235454545
-11.5976599910 -46.7547564064 14.1714285714
-0.7706802251 -44.2124879231 23.7267777778
43.3223000000 -24.9367440000 -0.1000000000
43.3656551130 13.2816888032 21.3356666667
7.8500000000 -23.6500000000 43.4110000000
-26.6664192931 -31.1412616872 28.6752000000
45.9727963510 -18.5196744095 8.1500000000
-18.7943190000 -47.1221000000 0.2000000000
-42.0549391278 -23.1709142230 14.7000000000
42.3532666667 16.2968653333 21.3093333333
-23.0617320000 44.1803000000 4.5500000000
15.4286573186 -41.3740048717 23.8221111111
47.8454934447 25.3853660069 21.2750000000
47.2835298509 25.9575933190 21.2000000000
47.2557791665 26.5333203411 21.2750000000
-39.0577232692 31.2714114512 3.9500000000
46.6399401595 27.7051479195 21.2000000000
35.5535000000 -33.3212400000 12.8000000000
10.6015680000 -49.2374000000 -0.1000000000
23.2433808301 39.7917691682 19.5980000000
46.1049242590 29.5300885521 21.2600000000
-36.3929003709 -19.8433878957 28.1636666667
46.0854053252 30.1387977933 21.3500000000
-23.0200376116 44.1344233299 5.7714285714
45.4760000000 22.9091400000 19.7000000000
45.8711716226 30.7075117067 21.4000000000
43.7437224619 34.9744498498 21.2000000000
47.8385398726 4.9254510017 14.1333333333
11.8692996260 -28.6499365286 41.1666666667
35.6000000000 25.2250000000 24.8890000000
43.1637099070 -23.9353467006 9.3500000000
8.1766261116 23.6131129886 43.1352222222
26.8670017953 33.7249284041 25.6093000000
45.9528530408 21.5272634982 21.2000000000
42.4386815969 37.2777502579 21.3508571429
41.7945278872 37.9250810411 21.3538181818
40.0018534541 39.7022792663 21.3842500000
28.6666871563 40.9672194546 3.3500000000
19.0211432994 -41.6772791394 20.7516000000
19.0621614769 -45.2585307700 11.1200000000
20.1572605232 -41.1149340557 20.7018750000
20.8547115878 -40.6552357093 20.7882857143
-17.0404580000 39.3491000000 25.7513333333
44.6425000000 -14.8393440000 17.7000000000
33.3201606667 27.5693333333 25.5416666667
46.4881013870 -8.2251614686 17.1285714286
-6.7605508408 46.3577178126 17.7513333333
22.6116719906 -39.8621802494 20.6750000000
23.2266024666 -39.3886326434 20.7200000000
2.1881815324 41.2045574660 28.1000000000
23.6795000000 -39.2975160000 20.7500000000
-2.5707564823 -38.2264768938 32.2227500000
23.8650202258 -38.9033560787 20.7666666667
24.3743274275 -38.7147823475 20.6857142857
25.0401498165 -38.2098132342 20.7200000000
-22.8173152727 13.9203359865 42.2000000000
-21.0369510000 -43.4336000000 14.1500000000
32.1898560826 -37.5608144217 9.3500000000
45.9352995767 -13.0488838166 15.3500000000
6.4737006667 -14.3373333333 47.2993333333
25.4879000000 -38.1011280000 20.7500000000
32.9291758809 24.7362021082 28.6195555556
25.6388139200 -37.7137068787 20.7666666667
26.8586757689 -37.0062521391 20.7363636364
-41.1093859627 -5.2674771197 28.0342727273
35.9569684222 38.6048074747 17.6000000000
33.4852473625 -36.4767378603 8.7800000000
-3.8030769209 20.5326345158 45.3221250000
27.4302546851 -36.4944106378 20.7666666667
-1.3387621901 35.6614002666 34.8217500000
1.0661133793 -48.1874094643 14.6000000000
46.6392666448 25.9645790662 20.9000000000
21.4312596894 42.8173797251 14.7714000000
27.8741630826 -36.3868613421 20.6750000000
6.4608082075 -38.2857225802 31.6366666667
35.3091191940 36.0596885423 17.1500000000
29.7919289041 -34.6486405597 20.7666666667
45.2230159151 16.9235302095 13.5200000000
9.5066833603 48.8201800428 6.3500000000
30.4654683343 -34.0863481285 20.7760000000
0.9466293038 -45.7038015472 20.3000000000
32.1036820825 -32.7141294345 20.7706000000
-24.6634651331 -23.1900148081 36.8500000000
49.0055892403 1.9630991794 10.5500000000
32.2612956025 -32.3033308723 20.7666666667
-12.2693237158 -45.7410095060 16.1000000000
32.6767652373 -32.1002630791 20.6750000000
15.9179750000 -22.5079585000 51.5570000000
45.8818628428 -18.4668269959 8.7285714286
-48.3743161713 -6.4843205043 11.1000000000
33.2948943233 -31.4944005340 20.8037500000
0.4609177712 48.6105482904 12.3125000000
10.5907607542 45.5579646349 18.2760000000
33.4397518702 -31.1143333087 20.7333333333
33.8138285784 -30.8914652487 20.7850000000
34.8213422607 -33.6858505950 13.0000000000
34.0077369926 -30.4442015390 20.7666666667
38.3487130381 41.6332920971 20.7800000000
35.1756579932 -29.1918076005 20.7125000000
-13.9555548716 3.6717916968 47.7828000000
35.0419365474 -36.3061780267 0.9500000000
35.7716967160 -28.5440946447 20.7617777778
4.6064465557 5.4726096895 49.4165000000
-16.9230409114 46.4012529536 8.7500000000
43.3847000000 -20.7368520000 14.6000000000
36.3106862048 -28.0091003098 20.7138000000
36.4227281550 30.7570270588 15.3666666667
-16.3331658972 46.7863063053 8.1500000000
37.4945703071 -26.1957480477 20.7125000000
38.0717333333 -25.4841446667 20.7846666667
1.5575745827 -46.8591421153 17.7800000000
38.6877498635 -24.3999713122 20.7500000000
-29.6518680000 -0.8747000000 44.0000000000
32.9478097624 -34.7717939627 14.7800000000
38.9028523886 -23.8783776768 20.7713333333
46.9854247820 -13.1377022697 12.3000000000
39.3355285576 -23.2317113267 20.7000000000
39.5203086526 -22.6904400171 20.8142857143
-35.6462262057 6.3827942895 36.9200000000
7.5093622933 49.7803470940 0.9500000000
39.8308083143 -22.5849359465 20.6750000000
-23.1500000000 20.4750000000 39.1255000000
34.3460000000 -36.3188370000 6.9500000000
-37.8130200000 -31.4345000000 11.0000000000
19.5871550604 42.5908065056 17.7411250000
39.9944582217 -22.0385926269 20.7666666667
35.3170617719 -29.2798800237 20.1666666667
40.4815510486 -21.4040970977 20.6750000000
41.2070028082 -19.6491688029 20.7544000000
43.9814421234 -23.6855012973 5.7500000000
-19.2956329342 40.1490165115 23.0995000000
48.1848073113 13.9072290941 3.9000000000
-5.0307705332 -28.6723880578 40.6426000000
39.5170975880 29.5829041001 8.1500000000
41.3937047854 -19.1316163718 20.7500000000
41.8036217944 -18.4606893346 20.7500000000
-17.0717822558 -41.0298327946 23.6000000000
-36.0050797213 9.7211979742 33.2801666667
47.9355364611 -4.0738088130 14.1285714286
42.5137974147 -16.6486088589 20.7500000000
42.8347780825 24.1323154490 10.4000000000
44.1727168138 -11.7682936447 20.7891000000
19.3295000000 -42.2888280000 19.4000000000
-14.6191335949 -48.0814389066 0.9500000000
-44.0502568641 13.3525932236 19.5714285714
-23.4160860000 -41.0946500000 17.0160000000
6.4682040000 34.0892000000 -4.9000000000
44.2860727340 -11.2448850804 20.7875000000
44.4674555404 -10.0986497178 20.8250000000
6.4315740000 -34.2260000000 -4.4500000000
40.7049806946 -23.2791367012 17.7333333333
44.7996616576 -8.8859238883 20.7500000000
-6.3166666667 -27.0666666667 41.4790000000
44.9155362990 -8.2932929259 20.7500000000
5.6167959253 -29.0583492939 40.4010000000
18.3331067273 -42.8953892005 18.9352500000
45.0413207731 -7.0836002115 20.8492857143
12.4136808040 -47.0879261842 12.3500000000
45.2508170950 -6.4140684421 20.7285714286
-12.7352622925 -27.3894425627 39.8271666667
45.2954982392 -5.8876528229 20.7285714286
-8.1044718457 -47.5206487818 13.7000000000
-12.1920625216 -42.6095627404 23.2400000000
-19.5995673761 -46.2672878700 0.3500000000
-28.9582957924 30.1844449390 27.4131666667
31.5438654623 -35.7224894854 15.8857142857
45.3490401707 -5.2843928553 20.7500000000
-19.2945981406 -7.6356336634 45.3982000000
45.5373752873 -3.4953331966 20.7714285714
-30.5708628671 21.6100603926 33.2000000000
5.2385399552 -26.1802837979 42.2366666667
45.5593648506 -2.9095941429 20.7666666667
-25.3163907817 -25.0427541358 35.1423636364
42.8518602935 -13.9867715360 22.4000000000
45.5977214454 -1.6663973414 20.7666666667
-41.1893490458 0.7247564608 43.7962500000
45.6011645628 0.7143453628 20.7714285714
42.6384957720 28.3543179523 19.4000000000
45.5581680436 1.3065719136 20.7666666667
-46.7844766903 10.8451294910 14.7500000000
9.9333333333 0.7666666667 48.9530000000
45.5410670687 1.9470843869 20.8262222222
-36.3557000000 -31.7774160000 13.1000000000
6.5071659198 42.3490095642 25.8118000000
18.5112686667 -33.1447666667 46.2423333333
45.5831086487 2.5532525274 20.7666666667
45.5068849834 3.1037015771 20.7500000000
-39.6792615060 30.6722727217 2.1500000000
2.2417029441 -31.6087732883 38.7088333333
45.5014968428 3.7157955638 20.7800000000
1.0256428222 48.7693437227 11.7363636364
45.4524213885 4.3003368692 20.7333333333
-35.7602508408 -29.3928362674 19.0000000000
-46.7648244648 13.9001983314 12.3500000000
27.4313894708 -39.4321320114 14.7500000000
-37.3988193993 6.4884740963 38.9000000000
42.6288292795 -23.8736954835 11.1500000000
8.8454746271 -42.3061511274 25.5640000000
44.9947313807 6.7517033846 20.8250000000
-4.3692643148 -48.3745324331 12.9636363636
39.1505000000 -30.3284220000 9.2000000000
45.0106483433 7.2907606702 20.7714285714
13.7652678075 -31.5234876238 47.1285714286
46.0275541822 5.5526970113 18.9363636364
44.7856258439 8.5427866717 20.7826363636
37.2034440000 -23.3525000000 23.9000000000
44.6535247919 9.1639345252 20.7500000000
-35.0604640337 34.9973417474 7.5500000000
4.6026277613 -32.1214299903 38.0360000000
44.3889916441 9.7616245706 20.8400000000
-32.6761380000 36.9965000000 7.7000000000
44.2986622543 10.9516147494 20.7666666667
30.9979905324 -38.0837961765 11.1200000000
22.8131000000 -43.4958000000 12.2000000000
11.2140665915 -45.5887209788 17.8077000000
29.9696546733 -36.6137925489 16.5996000000
44.1867563889 11.5205992333 20.7333333333
43.6027941780 13.2908034376 20.7590000000
-15.1677879136 31.9792771235 35.2587500000
-0.1863422869 -36.3520082727 34.4893333333
43.2370666671 14.0124573269 20.7800000000
21.5547495685 -45.0726230923 5.7800000000
42.4945333333 16.3684546667 20.7601666667
50.0635741181 4.9043767003 0.9500000000
-42.9664235513 8.6500374792 24.0075000000
42.0593941848 17.5584988573 20.8250000000
36.0619022485 32.1199679724 13.0000000000
-34.2919332960 28.8379562304 22.5000000000
42.2565714660 18.2234725737 20.6750000000
7.6351192286 46.1138406228 18.2712000000
42.4885969825 18.7153448847 20.7875000000
43.4738624503 19.4797298119 20.7200000000
-38.9385094362 -10.6092322094 29.7098000000
25.5687062312 -42.8954084220 6.3285714286
47.6000000000 27.6000000000 25.0870000000
-0.7750000000 -2.2750000000 49.6517500000
45.2075000000 20.6596680000 20.7500000000
-19.4579880000 46.0451000000 2.3000000000
-16.8238080000 -36.8705000000 29.6000000000
47.1374000000 21.8558130000 20.7500000000
48.3212000000 23.5034520000 20.9000000000
47.0879059776 25.2997917337 20.9000000000
-46.0775739491 0.6118807110 20.0000000000
-22.9088018212 -11.7808851482 42.8000000000
47.5067000000 25.7550900000 20.9000000000
2.8277343500 -37.0694663539 33.4321538462
-49.6045872183 3.1114961114 6.4000000000
-37.2393540000 5.3975000000 33.2000000000
46.5179000000 27.1070730000 20.9000000000
26.7905735462 -42.8575955615 0.9500000000
46.0680010732 27.6980738957 20.9000000000
28.7597736877 36.5219676676 21.3500000000
4.0012610785 21.2330236550 44.9448571429
45.8255000000 28.9084650000 20.9000000000
45.3989454011 29.5702304197 20.9000000000
42.0055380000 -22.3151000000 15.5000000000
-41.5978010497 -26.2156417287 9.9666666667
43.1607704288 16.9300970583 18.9500000000
44.9141512409 30.7919305024 20.9000000000
-43.2339694170 4.9442882507 24.9500000000
44.7540551669 31.3190307131 20.9000000000
45.8243161102 -20.1844576141 4.5500000000
48.3085490721 11.5638421576 7.5500000000
-12.1769058683 -45.8794079024 16.5641428571
44.2507600685 32.4584745594 20.8400000000
44.1275232795 33.1117397713 20.9000000000
38.9999757577 26.6201076707 16.5800000000
44.0726000000 33.7119900000 20.9000000000
38.2385000345 -29.2888639564 14.1800000000
43.4552884930 34.8470074206 20.8250000000
32.7589651429 27.0116428571 26.7760000000
21.4821572711 39.8664861591 21.4046250000
-42.8179456860 4.3577427744 25.5800000000
10.3500000000 -3.1500000000 48.8320000000
-15.7045626088 46.8532765672 8.7500000000
43.0591926878 35.5228622199 20.8000000000
43.3301000000 -22.5367500000 12.2000000000
23.2273321954 -36.4637834397 36.3333333333
10.5626066113 30.6319502015 38.0000000000
46.0338614297 3.7569692112 19.5666666667
25.5999655399 -36.9802869852 35.7500000000
42.9581060327 36.1329560473 20.9000000000
23.1737130333 38.3519340760 22.5204000000
-49.8721676755 -3.4588547699 5.1200000000
-0.7884834367 -47.7844091938 15.3939166667
-45.3351903603 -20.9138147821 4.5500000000
42.8261000000 36.7144950000 20.9000000000
14.7858125382 -31.4409423163 36.2000000000
12.4482989494 -48.6678226136 2.7800000000
-39.7136247093 -10.6411395210 28.5682727273
42.3377000000 37.2654740000 20.8000000000
38.9199505641 40.9659972016 20.8319090909
37.7072092132 42.1812201286 20.8000000000
-14.5413134640 43.4392492354 20.2047777778
19.3853500000 -41.6695040000 20.7060000000
-26.5592043292 -18.4710534920 38.1736666667
37.8122330509 28.4059201158 16.5200000000
-8.6183930978 -48.6527435566 8.7800000000
-35.9997935385 -23.7924620975 25.5559000000
7.6713964650 44.6111528459 21.4107272727
26.5571000000 -37.5032640000 20.6000000000
27.3653000000 -36.9048780000 20.6000000000
29.5619000000 -35.1092640000 20.6000000000
-22.2445052749 21.6705293062 39.2000000000
24.3025162023 36.5705593380 24.2226666667
-26.0149601298 -32.3326611692 28.0584444444
3.4085964034 -48.9796775181 11.1333333333
15.4055601918 -45.5089571623 14.7915555556
5.2674436544 45.9816393917 19.0250000000
33.9916351385 -36.4617971700 6.9500000000
47.3678016361 -2.2700225062 15.9800000000
-35.7149383604 -10.0609090083 33.4668000000
-24.8095483698 -31.1045368759 30.4787000000
36.6443793447 -17.3965666103 29.3000000000
34.3847074490 -30.2527897160 20.6000000000
31.0823726089 -38.3131286907 9.3714285714
-20.6190727513 -26.3097779341 37.1205555556
41.9831926444 -26.9045171202 5.7500000000
34.9397000000 -29.7199980000 20.6000000000
38.5493000000 -24.9271980000 20.6000000000
-40.2450121497 2.1869695513 44.6000000000
30.5452244587 38.0251324524 11.2142857143
-1.9871603104 -31.5754059150 38.7670909091
40.3283000000 -21.9307440000 20.6000000000
-4.4864698382 -42.6655573079 25.7000000000
42.2147641298 -17.8270475739 20.6000000000
11.0820124076 -24.4868096495 48.5886666667
45.7940699461 -0.4082679777 20.7000000000
-21.0356940000 -42.8051000000 16.4000000000
42.3938534761 25.9369239883 6.9333333333
45.8040284629 0.1241573081 20.6600000000
-28.4000000000 -5.9000000000 40.8103333333
30.3533806380 -36.8665962242 15.9000000000
-47.8661000000 -14.9543280000 2.1500000000
-18.1778372709 22.3883444768 40.7072307692
45.2928291898 6.1242357977 20.6600000000
-38.7048864825 -26.3303880302 17.7800000000
45.1900885765 6.7165828245 20.7200000000
44.0713349578 12.0545686594 20.6750000000
33.8759900982 -34.4675300882 14.1000000000
-45.2398565237 21.7409152903 0.9500000000
43.1920145085 26.6010685363 19.4000000000
-18.1101330207 46.7942640087 1.5714285714
42.1745417655 17.4397874795 20.6000000000
36.7823000000 -27.9236760000 20.0000000000
-40.4439023188 3.6075724853 37.4750000000
46.6499263681 24.6948971966 20.6000000000
46.2509197622 -18.5911963366 5.8000000000
46.6959241827 25.3868430697 20.7000000000
-7.3681890000 -34.0799000000 -5.0500000000
37.5818734253 33.0552207872 3.9333333333
46.1139826999 26.5733848899 20.7000000000
41.7114120723 27.7080690303 3.9500000000
-40.9797079046 -29.2055153174 1.5500000000
45.9113277928 27.1017068796 20.7500000000
42.4750000000 22.9750000000 27.1022500000
44.7551327677 29.4797705731 20.6000000000
-44.4092816926 -2.8360411049 23.0750000000
-18.5825588647 22.7747549346 40.4000000000
44.8972477756 30.1376090484 20.7000000000
46.4792910814 18.6785300022 3.9285714286
30.4759200000 37.8992000000 23.1500000000
43.5645916044 33.6997765588 20.7500000000
38.1165149010 34.8696452586 18.2000000000
43.1771644275 35.0989272437 20.7500000000
0.4386327580 -27.4508654247 41.7838750000
9.3262308757 -22.1065248339 44.8984000000
42.4485837977 36.0766992134 20.6000000000
29.8257236265 40.3356523763 0.3363636364
-31.2424099267 -14.2518130476 36.3044444444
42.4124766407 36.7656170227 20.7500000000
44.8931039737 9.1392559243 20.1666666667
41.9607030206 37.3459922646 20.6750000000
41.1927696835 39.0046769219 20.7361666667
-31.2628623652 -30.4213251924 24.9312500000
-35.5004388594 -20.8140876308 28.5886666667
27.4296894898 -38.8732107356 15.9666666667
-16.3927987841 -43.1002074840 19.6143000000
38.7160113475 41.4547404984 20.6857142857
38.1946261841 42.0856238151 20.7333333333
-40.4128642160 29.6603893807 1.5500000000
-19.3741592944 -22.0081678330 40.4840000000
15.3803748004 -43.5279110437 20.1601428571
-2.5698834629 -25.5675819201 42.8600000000
40.3031278418 4.2433690071 29.3000000000
-11.0250000000 7.3500000000 48.0460000000
20.7134512566 -41.1465084237 20.1431250000
-19.3555556497 -46.1479894865 4.5666666667
-3.1134304217 44.1275523871 23.2967142857
-38.4602333961 2.6697700456 36.3714285714
21.4002271247 -40.6869846372 20.1759000000
34.6855700221 -35.8676581952 6.3333333333
22.6411939764 -40.0217204886 20.1200000000
0.4665154022 18.1904145507 46.5023333333
23.8169880027 -39.3836411684 20.1666666667
-33.9342157460 -25.7563835373 26.3462500000
-6.1450721370 37.8110841993 32.0765000000
43.5992777547 19.3789962290 19.5500000000
24.4234323308 -38.8903775476 20.1800000000
26.0573136150 -38.0568171100 20.1000000000
41.2865315361 -22.7058957147 17.1666666667
46.4690438721 -19.0874252047 2.7500000000
26.2286713926 -37.6664709959 20.2000000000
26.7359304662 -37.5455438302 20.0500000000
21.3830998937 -42.2946998796 17.0890000000
-1.9700455587 38.0547302686 32.3061818182
-11.5854712338 41.6810941601 25.0933333333
27.3628969249 -36.9796113903 20.1666666667
28.0272546606 -36.4659332162 20.1200000000
-12.1785239927 -10.0582844850 47.2901818182
28.4780884949 -36.2606106916 20.1000000000
-24.1634303608 -44.1058460926 2.7500000000
14.4123000218 -32.1549431695 45.3500000000
41.3334138035 28.3589310648 2.1500000000
28.6478042182 -35.8863580873 20.1666666667
-18.7409734233 45.2460748362 11.1500000000
23.1578160268 -44.6481381455 3.3500000000
37.2557000000 33.2756220000 2.3000000000
29.1118781619 -35.6952093451 20.0750000000
30.9851432666 -34.0176902544 20.1636363636
31.5499363729 -33.4053937428 20.1860833333
37.0171508709 33.1048920932 6.9636363636
-32.8394900335 -37.8214817506 2.8000000000
7.0319882022 -15.9948927533 46.7092857143
10.1000000000 -13.1500000000 46.9630000000
7.0116994286 -8.9237857143 48.5334285714
-41.1851007158 -2.9327451740 28.1000000000
33.3656947369 -31.6325846147 20.1594545455
-29.1557000000 -37.7918400000 14.9000000000
-25.6382500000 -28.1744300000 32.4225000000
-23.0601759987 -40.7702791884 17.7865555556
46.7683122522 17.5640646080 4.5714285714
33.9861443920 -31.0260189541 20.1000000000
39.6414689348 -13.1597500513 27.5000000000
-18.8640060000 43.0349000000 17.3000000000
17.7970256269 -41.8525525214 21.3766363636
34.4936616844 -30.4067485593 20.1352222222
12.8764370000 26.3806500000 40.4505000000
47.5246877757 -6.7920844882 15.2000000000
-22.9439336906 -41.7190040111 15.9000000000
35.6922028301 -29.1563894082 20.0750000000
-41.3282000000 28.2327690000 5.1500000000
-37.2106980000 -30.2747000000 15.2000000000
5.2961847955 -41.4810120656 27.5000000000
32.2079603229 36.1149836456 12.9666666667
35.8677003420 -28.6807387005 20.1666666667
36.4191117022 -28.0684833547 20.1500000000
-35.1028709491 32.1896642488 15.5000000000
-20.9897000000 31.1921040000 33.2000000000
37.1040982221 -26.9324824711 20.2517777778
38.1938779163 -25.6196090318 20.1613000000
1.6000000000 10.9750000000 48.6295000000
39.5423037687 -23.2996084581 20.1500000000
30.3990313700 -39.4271200854 7.5500000000
40.0032248006 -22.6205314015 20.1130909091
40.4881523878 -21.9866951522 20.0750000000
-4.3658970397 19.2953832257 45.8273333333
30.6488651801 -16.2477559358 35.9000000000
-35.1603577253 -22.7343275736 27.5296666667
40.6440828870 -21.4951314363 20.1333333333
-16.3957590000 -47.8469000000 0.3500000000
48.6355228305 -3.9807170217 11.1000000000
40.8103168265 -20.8648028435 20.2142857143
-29.0137147340 39.2344824430 11.1714285714
41.3535977681 -19.7545674907 20.2400000000
-37.2666439905 10.3659195968 32.0600000000
-37.2648030420 -6.9980984551 32.6600000000
41.6425524677 -19.6141166397 20.0750000000
36.4484619710 39.7819926367 17.9000000000
-4.2824083725 43.7645074596 24.2000000000
14.8307077700 45.1265556772 15.9667272727
-36.6106440000 -30.2489000000 16.5500000000
19.0271106644 -33.9531750539 36.3666666667
41.8014751382 -19.0668588905 20.1333333333
47.1922931935 -5.8416127223 15.9200000000
42.4199769244 -17.8469919024 20.1500000000
42.3373330000 37.1742500000 21.8940000000
2.8028137709 -39.3756946666 30.9131000000
-50.1120028018 -2.0472678788 -0.1000000000
1.6000000000 -23.4000000000 43.9450000000
-36.3302724838 34.4700992286 2.1500000000
42.5383216999 -17.3081001349 20.1714285714
42.8756749304 -16.7081046343 20.1500000000
-11.0250000000 -1.0250000000 48.5575000000
-47.2143067896 8.0094600288 14.3000000000
-15.6056040000 -27.7709000000 38.6000000000
43.0401507475 -16.0809170301 20.1938888889
43.2109206325 -15.4932118144 20.1800000000
43.3993000000 -15.4368600000 20.1000000000
45.4406084166 -21.4680139559 2.7500000000
48.5844896922 11.5487757063 5.1714285714
43.7095283797 -14.2382010864 20.1666666667
8.8046000000 30.7825140000 -8.6500000000
-40.3666682052 22.3479794636 19.5590769231
44.1320515057 -13.0552507553 20.1285714286
-18.6964268591 21.6845797695 41.0000000000
44.1847837153 -12.5036423835 20.1666666667
-13.9913508345 35.5457368424 32.2225714286
-18.2020550691 -15.5554353104 43.7686666667
-26.0000000000 6.0500000000 42.5770000000
44.4437460030 -11.2860254242 20.2250000000
47.8598561722 9.7072089703 11.1363636364
18.3326220000 41.2745000000 21.8000000000
44.6651836978 -11.2001959495 20.1000000000
29.2115289625 -37.6078401565 15.9666666667
44.7875551489 -10.1297921066 20.1500000000
-14.5939027338 -47.1390436460 9.9285714286
8.8528458731 45.6021678509 18.9543636364
44.8873819268 -9.4852524943 20.1666666667
45.4234905251 -7.0524180642 20.1333333333
47.5915000000 -14.8452420000 6.9000000000
21.4831601415 42.1259954127 16.5993000000
22.5638655000 42.5489250000 14.2075000000
45.5162417453 -5.8734413231 20.1333333333
45.5564933782 -5.2937286936 20.1875000000
45.5580087489 -4.6362710147 20.2000000000
45.8774229066 -2.8850592199 20.1285714286
-7.9397271673 18.0976909734 45.8142857143
45.7809847602 -7.0973197056 19.5200000000
18.1000000000 18.3500000000 42.6490000000
-3.0250000000 -12.0250000000 48.1195000000
-8.0235645805 -41.4645086464 26.9000000000
35.2623075462 31.3957128305 24.9215000000
45.8788751186 -2.2642706506 20.1500000000
-42.0820058603 -7.0478743396 26.1666666667
-18.1716471036 -46.5541901330 5.7200000000
-3.8079843195 -41.3792661963 27.9831000000
45.9050657752 -1.0806016492 20.1125000000
-29.5612548933 40.3169373110 3.9636363636
45.9901644407 0.1295312512 20.1000000000
-6.8257562061 -50.0415770877 2.1500000000
45.9029475579 0.7044375049 20.1666666667
32.1853503849 -38.8480314889 -0.1000000000
12.4533487832 45.2298666475 17.7470909091
6.4210857006 47.1908872352 15.3500000000
32.7434696706 -38.1554397615 3.3333333333
-27.7817689267 15.7742977968 38.3193750000
-39.5705000000 25.8292440000 17.0000000000
-16.9897228513 -41.1236961456 23.1695000000
-44.1868746545 -21.5003150668 9.9500000000
16.6778954162 -30.5423317280 48.5581111111
45.8819735863 1.3035927652 20.1125000000
-38.7135014938 30.1859884407 9.9666666667
16.0177340551 44.4960560494 16.5765555556
26.4280901764 -36.6495994224 39.5000000000
16.5264756667 -20.7259833333 49.6561666667
45.6539695348 3.0695962428 20.3000000000
-15.4000000000 -21.6500000000 42.1510000000
45.8434742246 3.1480450505 20.1285714286
45.5206935154 4.9873554157 20.1875000000
-8.4907830155 46.7930097910 15.8857142857
25.5261553835 38.4450865888 19.5736250000
45.5108937616 5.5485246732 20.1738000000
45.4250033782 6.1460332691 20.1500000000
45.3261959621 7.3265492371 20.1500000000
-15.2546310000 47.7152000000 0.3500000000
34.0104702590 -36.9387822169 4.5500000000
-30.8714700000 39.3269000000 0.3500000000
45.2559175305 7.8990306774 20.1125000000
-27.6348345394 -18.3467018543 37.4588333333
-10.3622563889 -32.1485988722 36.8903000000
45.0040019601 8.5063362579 20.2237500000
20.7362880000 43.1027000000 15.2000000000
44.4475210898 10.8766352831 20.1800000000
8.8933221034 -43.8169661287 22.6000000000
44.3659027685 11.5162193459 20.1875000000
-49.3143197625 9.7279135022 2.1125000000
43.6685234895 13.9224653303 20.1333333333
0.9680799341 -36.3363350656 34.4635714286
43.5552125845 14.4907310486 20.2013333333
-44.4269785489 0.7559056283 23.1500000000
10.2572471273 48.3945733664 7.1000000000
43.2454475789 15.1649423259 20.3000000000
-33.8563440000 -3.1043000000 39.2000000000
-21.1604242182 24.1026086786 38.2417857143
41.7205000516 29.5245540896 19.1000000000
40.0222630771 -25.0176483144 17.1500000000
26.3370633620 39.2888954074 16.6262500000
42.8660166667 16.3072340000 20.1950000000
-36.7945250671 6.1356288328 35.7285714286
42.3604076496 18.1405650968 20.1500000000
-44.2276366040 -7.6890236760 22.0250000000
-42.2848822533 -26.8775643525 2.7500000000
42.8874480770 18.8878663898 20.0750000000
-35.0458090734 -32.3026161301 15.3875000000
-0.7608769048 -22.8291409731 44.3440000000
-49.1728730725 11.0783437642 2.9000000000
43.5682718909 19.4860994279 20.1500000000
-10.4108933489 39.9396913745 28.1520000000
-43.8963241626 4.9833021935 40.0142857143
-16.5509000000 -32.4170280000 34.1000000000
38.7443000000 40.3226730000 19.1000000000
0.4441705714 4.3852142857 49.7252857143
-6.7750489926 27.6913539587 41.0405000000
0.4693086794 -34.5122534773 36.2763333333
44.1920439216 19.9362248134 20.1500000000
-12.7890827951 47.6683012643 8.7714285714
-0.8261071956 -43.2352719750 25.1000000000
45.8981444547 21.0716150747 20.1000000000
-7.3958567618 -46.2070552543 17.8000000000
-16.4123223333 -10.6404526667 45.8950000000
46.4402000000 21.2572050000 20.1500000000
-1.9634967893 -16.5451735182 47.0465000000
47.2619000000 21.8555640000 20.3000000000
-12.6575987903 -13.4827345717 46.4000000000
7.0153840623 -43.1998021432 24.4242222222
47.5745000000 22.1549400000 20.3000000000
8.7445870154 -42.8524645520 24.8083333333
46.1344509906 24.1136727920 20.3000000000
45.9172045251 24.6631284886 20.3000000000
23.2064853045 -44.1653676682 6.3500000000
-47.2195485188 0.1985146456 16.6000000000
45.7535000000 25.1585940000 20.3000000000
45.4017193804 25.3449260977 20.2400000000
45.5360000000 25.9090320000 20.3000000000
-32.5991527316 24.1544103987 29.2474615385
-49.9651041045 -5.2557469243 0.3875000000
12.4135882711 34.4071455300 34.0682727273
45.3737000000 26.5093590000 20.3000000000
-12.1117954910 -43.4843034192 22.0141000000
45.1391000000 26.9598300000 20.3000000000
44.8699129368 27.1353333000 20.3000000000
44.7278000000 28.3106580000 20.3000000000
-49.3562315479 -1.6422426395 8.7666666667
44.5697000000 28.7609760000 20.3000000000
44.2556455785 29.0136041897 20.3000000000
43.5968235256 31.3335067713 20.3000000000
43.5171699237 31.8791915266 20.3000000000
46.5165504591 -16.0899402612 9.9285714286
-46.2928425958 19.3635576336 1.5500000000
43.0488098140 32.5424132769 20.3000000000
-13.3553365842 -46.0336801304 14.7875000000
-1.3775408648 -43.5327227969 25.0415000000
42.9962239371 33.0486407252 20.3000000000
42.9446000000 33.7142460000 20.3000000000
46.1527606201 19.2770152467 3.9500000000
43.3751000000 34.4633880000 20.3000000000
41.6533614541 37.3214185285 20.3000000000
-32.6777675573 33.8343284776 17.1748888889
42.6469822188 23.0852944506 12.4000000000
-38.4149634459 -23.2025076731 22.4857142857
41.2382460598 38.0366496455 20.1500000000
5.2163168038 31.5495517032 38.4030000000
-39.8855400702 -22.0921031697 20.7714285714
47.8086300068 7.9035864401 12.9333333333
41.0885283796 38.4983701119 20.1800000000
-23.6793967269 -44.4029654861 -0.1000000000
40.9703000000 39.5682180000 20.3000000000
40.0919652579 39.8958448322 20.1500000000
-31.4061606312 21.7575726486 32.2435384615
43.2648392338 17.0240247192 18.3500000000
38.2856868068 42.1873447265 20.1500000000
47.2349493905 3.1042771469 16.5200000000
-25.8651658176 -14.1974685929 40.4000000000
-21.0852217742 -16.0016081438 42.3110000000
-44.4058157925 -19.5345112707 12.9500000000
32.5953500000 -32.6826560000 20.2140000000
-18.7429080000 -46.4167000000 5.1000000000
46.4617434857 -2.9102280083 18.9000000000
38.0219000000 -26.1261480000 20.0000000000
39.1655000000 -24.3284280000 20.0000000000
-14.6564120000 43.6087500000 19.7850000000
45.2099772114 -8.8916271743 20.1500000000
-35.8841000000 30.0218880000 18.2000000000
-27.2452625000 -8.9431515000 40.8240000000
-39.3200118795 8.0226734385 29.8400000000
21.9809441406 -37.5936671048 41.7284444444
-29.5407200350 40.1628646550 6.3500000000
45.8421422291 -4.0199973668 20.1000000000
45.7595000000 -15.3415800000 14.0000000000
-33.4961000000 30.0171120000 22.4000000000
-0.1345197545 49.5063444803 8.1666666667
44.0307366112 13.1888382858 20.0500000000
1.6095349380 25.3144847725 43.0063076923
46.0332897760 23.5659070821 20.1000000000
-21.7833457597 -41.2661380823 18.3606923077
46.6647655717 13.3622484074 12.3500000000
-4.3752183615 49.9033677820 2.1500000000
43.8516767552 -23.5510144197 6.5000000000
45.5698258891 24.1245210528 20.0000000000
44.8334456912 25.3870578285 20.0000000000
44.7096244135 26.5351812491 20.1000000000
-9.7621941174 -30.9457988797 38.0545714286
46.4177171239 1.9193725949 18.9898333333
35.8964776361 34.9388133146 2.7500000000
44.3507076354 27.1140923043 20.0000000000
-41.0362172720 3.6615348696 38.1125000000
-9.8041771361 -37.6496139154 31.5842000000
-6.2422909223 -49.2608680439 7.5800000000
0.9125142301 47.9013154748 15.2000000000
0.9838968271 -49.6330092591 8.1500000000
44.1841482451 27.6883598374 20.0000000000
33.9078611220 -35.6724510464 10.5500000000
17.9755560000 -37.2581000000 28.1000000000
44.2721794014 28.3440378861 20.1500000000
-40.8059370000 -27.8870000000 9.9500000000
-46.5666908783 12.2618100280 13.6000000000
43.7104149617 28.8822211116 20.0000000000
-7.4000000000 2.4750000000 49.2080000000
27.4194921493 -42.2448955321 3.9500000000
43.6632848026 29.5323358287 20.0750000000
-33.6772546709 -14.8500785573 33.8732000000
39.9256728713 39.0589105860 19.7000000000
43.4852914355 30.6803039267 20.1500000000
42.4172667700 32.5404470010 20.0000000000
46.0857118950 19.9528909130 0.3500000000
-49.4523055415 0.8108695475 8.1666666667
42.5602062930 33.1577005307 20.1000000000
9.3674103060 -47.2864800372 14.1500000000
27.9928008623 31.3103519297 27.4133333333
-8.5250000000 4.9750000000 48.7382500000
41.8888135597 34.2482358250 20.0000000000
19.0687566208 -10.0575342275 45.0128333333
-3.7294791539 -40.3967841350 29.6000000000
31.2473000000 38.0876580000 8.3000000000
11.2641318748 -44.4315694044 20.2000000000
-19.1773779587 44.2652323988 14.0000000000
42.7457000000 34.7646480000 20.0000000000
-45.9544080636 13.4307364771 14.8000000000
41.7696672599 34.9564312134 20.0000000000
41.8192212757 35.6130234220 20.1500000000
41.7336607154 36.0736629431 20.1500000000
17.7253074625 -32.9961983559 36.3500000000
41.2178582528 36.1778299275 20.0000000000
-21.1789788591 42.7577660134 15.4160000000
-31.9000000000 2.4750000000 48.0685000000
-7.3987440445 -45.5727491850 19.6304545455
47.9889452320 14.5926396204 3.3500000000
-13.9829067557 -47.3155387211 9.3500000000
-47.4564626377 -2.8127993349 15.9125000000
-13.3109552415 -32.6425214723 35.6036666667
41.1901967691 37.4104342664 20.0600000000
-39.7406546667 7.0924000000 43.7476666667
48.9095209648 4.9812920275 9.9666666667
44.2623004760 23.5888427117 1.5500000000
13.6185362249 -9.4969663936 47.0332857143
40.7050848816 39.1443749164 20.2975000000
40.5977941949 39.8264237290 20.2041666667
4.7250000000 -14.4000000000 47.5555000000
17.2475420966 -47.1861067156 3.3500000000
-1.9541174285 -26.6563177015 42.2241666667
-33.3762233286 -25.2189428041 27.5776666667
20.2158730243 -41.6920652800 19.5662500000
-4.3416928324 -5.3096801101 49.4000000000
4.0786282895 49.7777603832 5.1500000000
-35.1767000000 -28.7797620000 20.9000000000
20.8290444225 -41.2581401795 19.6082142857
-46.6314506908 13.5884498009 11.9000000000
36.9500000000 33.0500000000 25.8928000000
-29.9000000000 9.1000000000 39.6970000000
20.8357541523 -42.9380045180 15.8856666667
42.9434501082 -22.6759081070 12.9285714286
2.2666666667 9.6833333333 48.8180000000
22.5184104683 -40.5595720477 19.5772500000
-3.1372528991 49.9097437155 3.9500000000
14.6487898505 -31.8289851211 42.3200000000
-3.2291906633 -41.3721353600 28.0817000000
-35.5948912754 7.2214423462 43.5500000000
23.1840773837 -40.0039513420 19.5333333333
-46.8300571866 8.3307799568 16.4000000000
43.2648813644 33.4241017465 20.6000000000
12.4478897212 -34.6461509247 33.9771538462
24.3920011206 -39.3665917952 19.5333333333
25.5074640577 -38.6671030428 19.5500000000
25.6991879268 -38.3446218758 19.5875000000
26.8032921111 -37.6381168967 19.5333333333
27.9423551468 -36.9542937392 19.4857142857
12.9518755069 -43.9664020020 20.6000000000
29.8898177325 -35.2490003888 19.5439000000
43.6786903092 -18.4503856681 16.5500000000
42.3475236835 27.6819567746 19.1000000000
23.2254302578 42.0587935335 14.1500000000
-17.9775120000 -13.7201000000 44.6000000000
-1.2750000000 -6.4000000000 49.4425000000
30.3106843061 -35.0725339595 19.5000000000
-9.1691342176 39.0752424073 29.8505714286
30.4501586178 -34.7016320183 19.6253636364
30.9045214117 -34.5743067857 19.4600000000
31.5282177313 -33.9804705818 19.5000000000
25.7463201292 34.4822686731 25.6901250000
47.9958631559 10.3095589499 9.9285714286
32.1185383276 -33.3493085065 19.5000000000
32.2996626994 -32.9317430474 19.5875000000
-15.6020220000 -25.9799000000 39.8000000000
-41.7018839609 27.8830279746 0.9800000000
33.3309953705 -32.1254018575 19.5000000000
45.0618475848 -12.4376716982 17.9000000000
2.1378185590 -50.4452325293 -0.1000000000
35.0690000000 -30.3202590000 19.5500000000
-41.7198643612 0.1548577993 27.5000000000
47.7849571369 12.7279854967 8.1500000000
35.2370996196 -29.8632004145 19.5471666667
35.7718041192 -29.2371047257 19.5666666667
-22.9531698818 43.9828057773 6.9500000000
36.3747781166 -28.5997640482 19.5333333333
36.8603472241 -28.0291717113 19.5500000000
37.0625038198 -27.5509578584 19.5333333333
26.2141770000 -42.9641000000 -0.1000000000
38.3241202817 -25.6499508459 19.6250000000
39.3128480930 -24.3873067290 19.4857142857
3.4825992601 44.7561352901 21.9800000000
39.5365754517 -23.8558609969 19.5666666667
12.5956770000 -29.2491500000 50.7390000000
40.1692739673 -22.7184536710 19.5714285714
37.1629593486 33.2257004670 4.5800000000
-42.9731000000 -23.9641500000 9.3500000000
40.5834854861 -22.0996895478 19.5666666667
47.4055759476 1.8995571482 15.9500000000
15.4707893871 38.5152195702 28.0099090909
21.4914692612 -35.0886893137 35.2000000000
41.0506309972 -21.4313526968 19.5000000000
-25.3473116716 -43.5343102707 1.5500000000
3.9965873263 23.3365234772 44.0000000000
-45.0702734692 23.0740312978 -0.1000000000
41.8118844197 -19.6500716608 19.5500000000
-16.9583592933 24.7462293228 39.9212000000
42.0404525498 -19.0260579783 19.6400000000
48.3546790087 3.1332835539 12.9666666667
-37.8359400000 7.1057000000 43.7000000000
-4.3773388721 -48.2486477400 14.1500000000
42.6132274639 -17.8605331326 19.6065000000
-35.3634061812 13.9224577566 32.6000000000
42.9029941999 -17.2263102533 19.5125000000
43.0986039587 -16.6290955159 19.5500000000
43.2554370191 -16.0596836795 19.6250000000
-27.0383233806 -15.3520049656 39.2076000000
-46.1328131308 -5.7944218738 18.9500000000
-22.3820362920 41.6323490455 16.6115000000
-39.3239217188 19.5005201145 23.9615000000
31.6718739059 34.9897654433 23.7335000000
43.5878576955 -15.4749021911 19.5125000000
-27.8185278395 9.7307987148 40.2114000000
35.8500000000 30.1000000000 24.9586666667
43.7463914831 -14.9295656445 19.5875000000
-0.5682875779 -50.7976177795 0.2000000000
44.0745596731 -14.2811784529 19.5000000000
29.9139802555 39.8174241353 5.1500000000
-35.1186536008 -2.4695356207 39.8000000000
-29.1842880723 6.8409639516 47.0000000000
44.2736325135 -13.0924583900 19.5666666667
-37.3270451397 15.1597423215 29.7924615385
44.4134094954 -12.4512116539 19.5714285714
44.6746433539 -11.9199011825 19.5125000000
44.8979152258 -10.6590293351 19.5714285714
-34.1641658431 22.2598546251 29.0868000000
21.4788857124 -44.4123967419 9.4250000000
45.0635874754 -9.5221701638 19.7000000000
-33.8056763270 -5.2696173998 47.1351428571
-22.4770194895 -45.0446626925 2.2250000000
29.1515901356 -41.0625209368 2.7000000000
45.2762043753 -9.3747692953 19.4857142857
16.6565331625 -44.3780354762 16.6244444444
45.3706177202 -8.8313511741 19.5500000000
35.6000000000 -25.4000000000 24.8140000000
-9.1776933233 -31.6602218640 37.6225294118
10.1085280924 38.7040412699 29.9000000000
43.1993846400 -25.7025048607 2.7500000000
9.4940833586 31.4231781624 37.6460909091
-29.7568874604 -36.0456439333 17.9000000000
-35.9447000000 34.2220260000 8.1500000000
-8.0014953874 -17.2847410831 46.1008888889
-47.4542947325 7.3553116684 14.7285714286
45.4183979991 -8.2684969577 19.5666666667
1.6710073343 -19.5382170260 45.8811250000
45.5480283741 -7.6739708908 19.5500000000
45.0972460573 -1.6327541055 21.5000000000
22.6149118838 42.5985126037 13.5285714286
45.6291022819 -5.9317309113 19.6250000000
41.1810970772 25.3262074081 27.2000000000
18.3073903762 -19.1750879261 48.2600000000
45.8640189211 -5.8340497703 19.5200000000
-24.9830500000 -30.0749940000 31.2420000000
49.8841772395 -4.7384073936 0.3500000000
48.3003484834 10.8795001057 8.1333333333
-2.6855656958 -40.8763334396 28.7000000000
45.8739066466 -5.3002855632 19.5125000000
-14.5750738932 -46.4950731729 12.3800000000
47.3297096286 15.7192545428 5.7500000000
7.0380713810 -27.8261113081 41.0000000000
-16.9607469690 36.6325737619 29.6898750000
46.0316326008 -4.0427141404 19.5500000000
-31.9588325828 -31.0041343023 23.1535454545
-20.5948625835 40.4147619941 21.3568333333
46.0429828862 -3.4594572252 19.5500000000
-19.3502052616 15.0730359400 43.4263000000
36.0255531900 -23.3619607188 25.7000000000
4.5734622434 2.4571555980 49.6048571429
46.0635292807 -2.8592191735 19.6000000000
46.0812447011 -1.6624732204 19.5875000000
-34.2347640000 7.6865000000 46.1000000000
46.1257485062 -0.4646422640 19.5666666667
46.1904939676 0.1541678787 19.5875000000
-36.3804904865 16.5185933682 29.9895000000
38.6999000000 -32.1275280000 3.9500000000
-48.5662845431 -7.0108804091 11.0750000000
12.9628089912 -44.1789736770 20.1559090909
46.1067290584 0.7421302196 19.5500000000
46.4591486659 0.7563691747 18.9714285714
-5.0127553321 43.5857442608 23.9812500000
-3.7743202933 -49.4547180247 8.7500000000
45.6078508293 5.5764363800 19.6400000000
-25.7813821624 15.6855926215 39.8000000000
46.4922434155 0.1021332776 18.9200000000
34.5230460000 36.4541000000 3.5000000000
45.5925109762 6.1754330787 19.5800000000
-39.9407492833 29.0418821668 8.1500000000
-12.7823800943 -46.1757448105 14.7666666667
32.1586478276 -38.1850691712 6.9285714286
-4.7601720000 -5.0765000000 49.4000000000
23.3329927481 -38.4357230279 22.0250000000
45.5117521800 7.3213167461 19.5500000000
-9.7925930740 -32.8860893227 36.3850769231
-31.1991992061 3.0017820996 47.4354000000
45.4812842788 7.9432757885 19.5500000000
44.2968453519 -21.5179641522 9.9500000000
-46.4446032673 -0.4451806978 18.9500000000
44.9788000510 9.7611067572 19.5714285714
14.2394419993 44.5977388627 17.7568888889
44.8714656700 10.3450986973 19.5875000000
-30.2632323890 37.4689035084 13.6000000000
-7.4000000000 1.3500000000 49.2470000000
-14.5140921754 -4.5763767031 47.6000000000
44.3883203212 12.1427285964 19.6000000000
44.0055018243 13.9312957631 19.5500000000
3.4431313704 24.8400003428 43.1702222222
44.2803645689 12.7207817787 19.5500000000
-25.6500000000 34.6000000000 25.3480000000
-22.9240369401 -40.0619688777 19.5983636364
38.1852286264 -26.8540675141 18.3500000000
-41.1642351582 -7.0270967709 27.5616666667
-36.9277145897 -32.8779074350 8.1714285714
43.1430477775 16.3029129474 19.5762222222
25.3937000000 -41.7009540000 12.9500000000
42.5936262523 17.6934188969 19.7000000000
5.2118475409 49.4731828915 5.7500000000
48.6865709904 2.6281808482 11.1500000000
25.6332938757 -37.7082940118 36.9666666667
42.9592646310 18.7702958801 19.5500000000
-39.9440895901 15.1779004776 26.2442000000
41.8647028423 -27.5035247268 3.9666666667
45.4165336400 20.5754350096 19.5500000000
-36.3667192467 17.7137203917 29.3776666667
30.2384284212 29.3253888814 27.2000000000
-24.1775734156 -16.0701279484 40.6296153846
44.2583248295 25.2821416288 19.7000000000
27.1000000000 -9.0250000000 40.9870000000
46.0376557526 21.1471382747 19.6250000000
46.0539399883 14.5050757224 13.5666666667
-29.3753000000 20.4088320000 35.0000000000
8.5820277240 9.4651758095 48.2000000000
45.1421000000 23.9598120000 19.7000000000
44.6165000000 25.1608680000 19.7000000000
-36.7585052507 -32.8533577663 9.3363636364
-29.9894152208 -40.4716397352 1.5000000000
44.3375000000 25.9114290000 19.7000000000
43.7077908574 27.6935713595 19.7000000000
26.6634220000 38.3593500000 18.2235000000
-45.2023758321 21.1923784898 5.1500000000
-15.8009153358 -44.1723916522 17.7525000000
43.7033000000 28.3127070000 19.7000000000
-33.2182394759 36.1926566965 9.9636363636
-23.5777529133 27.8081881128 34.1625000000
46.7919087280 7.9663020061 15.9875000000
43.1155631365 28.9912917121 19.7000000000
49.8153567616 5.5719155742 0.3800000000
42.9578209875 29.4743495491 19.7000000000
37.5908408155 40.3371827635 18.5000000000
-46.2366764853 0.7352217027 19.5200000000
-17.5385334922 -10.6747134721 45.4915454545
-25.8492633452 -20.7950244810 37.4600000000
42.5042755368 30.6727040256 19.6250000000
42.1670000000 31.9157940000 19.7000000000
48.2994939483 8.5681406662 10.5500000000
-8.5018960793 9.6492231439 48.2000000000
23.2635468619 -41.3282936123 16.5975454545
41.8456963911 32.5384081485 19.7000000000
-11.0522292149 3.1017857433 48.5060000000
40.5074700000 28.6541000000 8.6000000000
41.7550092291 33.0801146486 19.7000000000
37.7250000000 30.8500000000 26.0575000000
42.1097000000 34.7659200000 19.7000000000
8.2250000000 -10.0250000000 48.1090000000
-14.3878440000 -18.8933000000 44.0000000000
22.6348802633 -41.9068643629 16.0038181818
40.9607000000 36.2682240000 19.7000000000
-3.7774139025 49.3406983692 8.1500000000
2.1858120175 49.0354475767 9.5000000000
-21.2089022256 35.0366174268 28.6802222222
-33.6073161305 25.8645901168 26.6600000000
40.9975726062 37.3686922308 19.7000000000
40.0395500000 40.5351020000 19.7835000000
42.1905068566 8.0074278039 26.0000000000
-48.8072873300 11.6133209427 0.9500000000
14.8689858869 -48.2293341789 1.5500000000
18.4682638783 42.0333924909 20.1543636364
-2.0250000000 4.9750000000 49.5175000000
39.2000695582 41.4219166462 19.6250000000
-46.7456455827 6.7326250403 17.0750000000
0.3786675133 -39.6770739229 30.5000000000
38.6733101746 41.9842148204 19.6250000000
-7.8774413564 6.7831775332 48.8000000000
20.6987000000 -41.6915640000 19.4000000000
-27.7750000000 -5.2750000000 41.1430000000
24.9305000000 -39.3000180000 19.4000000000
43.2104366867 25.3467912557 2.7500000000
29.6450297734 -35.6501367463 19.4000000000
37.9787000000 -26.7260640000 19.4000000000
37.7651513777 -32.3523162436 7.0000000000
-36.7178710700 -1.6472708151 40.5500000000
39.8638500000 -23.8149250000 19.4655000000
-7.9208873302 25.3125526921 42.3183333333
40.9643000000 -21.9320160000 19.4000000000
-32.0048973374 19.9357882919 32.7785000000
49.8219275073 5.5459531915 1.5500000000
42.7859000000 -17.8856430000 19.4000000000
-25.3145039959 -8.2699151128 42.2686250000
36.6262373193 -34.2371890188 3.4000000000
49.7550074929 -3.4853045571 5.7500000000
-34.2190156335 1.8376262745 49.4000000000
-41.6329967262 4.9635231330 27.3500000000
44.6461594507 -12.5236064751 19.5000000000
33.5136648863 -36.5515605862 8.1714285714
7.8500000000 27.3500000000 40.9030000000
-37.8999593424 0.1821749309 39.3636363636
38.6170838159 -0.4790055040 32.0363333333
45.2172904295 -10.0564757791 19.4600000000
44.4429931620 -21.4546276414 9.3500000000
45.8523570943 -6.4671369857 19.4600000000
45.2799912065 9.0993942376 19.4600000000
44.6053445227 12.0365300097 19.4750000000
-42.4619000000 -26.3651820000 3.5000000000
10.6396412760 48.1749140238 8.7666666667
43.4563906908 15.6170642387 19.5200000000
-33.7255068116 -16.0256177640 33.3210833333
44.8119097489 22.2808082610 19.4000000000
-23.5560169194 -38.7890844862 21.3243000000
44.8187929592 22.9679382058 19.5500000000
13.6085057238 -46.0094814053 14.7500000000
44.3980840836 23.4928096556 19.4000000000
-40.2925401537 -8.2229526244 28.5838181818
-30.8095217647 11.5219479087 37.6042000000
44.1833907200 24.1748823424 19.4000000000
27.5736814808 -8.3325726678 40.8482000000
44.2229595029 24.6762990921 19.5500000000
45.4869387761 21.1146520022 2.1500000000
43.5737973980 25.8963269263 19.5000000000
42.9747072848 27.7739251196 19.4600000000
17.2113989026 -34.5993887358 43.5500000000
38.3743047719 28.5040548061 14.8000000000
19.0482060000 -27.6765000000 49.2643333333
42.9116566093 28.3403949452 19.5500000000
6.3094267411 28.7877736737 40.4000000000
42.5434090593 28.9418310018 19.4000000000
29.9506088355 38.6560743105 10.6142857143
-10.6500000000 -6.4000000000 48.1390000000
-37.2548186569 -14.2170492066 30.2816666667
42.4206052684 29.4823443970 19.4000000000
-36.5420000000 32.5732140000 12.2000000000
32.9853360000 -32.3981000000 19.1000000000
42.5165627299 30.1791401181 19.5000000000
-48.2487435118 13.3169865795 3.3500000000
-0.1461680668 46.3683875624 18.9995000000
-3.7793485447 -37.0739730664 33.4156923077
-21.8253544735 -45.4306207277 2.7500000000
41.8114063967 30.8290667198 19.4000000000
23.9083866522 -37.7665400666 22.6400000000
41.6960502591 27.7126793903 3.3285714286
41.7407693373 31.3137435311 19.4000000000
-9.2333333333 -13.7333333333 46.8990000000
41.8731066041 31.8912086785 19.6000000000
44.0221905252 22.4422973488 9.9500000000
41.6000000000 38.8500000000 20.4880000000
33.3255360000 37.7015000000 0.8000000000
8.2674254378 -40.1868991674 28.6978333333
41.3205091278 32.0411048365 19.4000000000
30.7253000000 -39.9116100000 4.4000000000
-41.1867843695 12.7175844734 25.2255000000
35.8215974280 -35.2455703215 3.3666666667
36.4099536317 34.3415639419 3.9666666667
41.2832830641 33.1885387616 19.5000000000
38.3440017158 31.4132592144 7.5666666667
