43.9081821627 19.5049915973 21.2930000000
43.9212937057 19.6091377044 21.8730000000
43.3847521175 19.2851208906 21.9313333333
43.2861085187 19.3468935210 22.6366363636
42.6184071420 19.3390586532 25.4896666667
42.6361316548 19.4378663906 26.0855000000
36.4420000000 19.3250000000 27.7730000000
-9.1358714120 -49.6447269033 3.7537692308
36.1120000000 19.3250000000 28.0730000000
35.7925000000 19.4750000000 28.3730000000
31.7260000000 19.3250000000 32.8730000000
19.5210666675 -34.9372024168 36.6605000000
23.4655000000 19.4750000000 39.1730000000
43.4980000000 19.6250000000 18.7730000000
6.8193397425 -46.3760708326 18.5684545455
44.4323799119 19.6890805164 20.4930000000
-0.1000370730 -36.6197661552 34.4674444444
43.6592806263 19.6732808403 23.3980000000
43.1092896638 19.6829966244 26.0563333333
43.0319014871 19.6236065890 26.9480000000
42.7780000000 19.6250000000 27.4730000000
43.0000000000 19.9250000000 18.7730000000
44.7006613803 19.9943103329 19.2563333333
44.6194120506 20.0102743040 21.2855000000
6.2250000000 -24.4615000000 43.2730000000
44.6532037917 20.1102228490 21.8785555556
44.6176443591 20.2189839452 22.6130000000
44.1328538260 19.9317854513 22.6730000000
44.0572353153 19.9654440423 23.3896666667
11.0859912230 -38.8959801027 29.8105000000
43.9753340347 20.0103453229 23.9896666667
43.9314247167 20.1921659257 25.4930000000
43.3984411134 19.9295798329 26.1230000000
34.5070000000 19.9250000000 29.5730000000
29.0350000000 19.9250000000 34.9730000000
15.7300000000 19.9250000000 42.7730000000
42.2609438844 11.7973695373 23.8230000000
45.0952041644 20.3052674741 21.2980000000
44.4583813287 20.3429834539 23.9896666667
43.7743401737 20.2540058506 26.8396666667
43.9088279381 20.2722727758 27.5896666667
45.2409383363 20.5321653366 2.3980000000
45.1885955603 20.5687581125 2.9980000000
44.3568747547 20.8238468838 8.5480000000
43.0885793276 20.6066786738 14.0396666667
42.4420000000 20.8250000000 18.7730000000
40.0293148830 -30.5187286760 -0.1770000000
45.5291639937 20.6017289263 21.2896666667
45.4252020529 20.6476908671 21.8896666667
45.3764336908 20.8692139188 23.3730000000
44.8418560314 20.5968656070 23.9980000000
44.6900570480 20.6394004321 24.7680000000
44.7061880564 20.7291074615 25.5063333333
44.6597369565 20.7777290097 26.0930000000
44.6112123724 20.8479406655 26.8153076923
44.1639264158 20.5340226679 26.9030000000
44.1689019289 20.5290697843 27.5563333333
43.4043355496 27.2002765519 19.9230000000
44.0200000000 20.5250000000 28.0730000000
31.0450000000 20.5250000000 32.8730000000
18.6250000000 20.5250000000 41.2730000000
46.0626054698 20.9591759687 21.3158571429
45.3439590196 20.9586445412 23.9855000000
44.6567410582 20.9361249079 27.5930000000
44.6983745654 20.9302555591 28.1130000000
33.6445000000 20.9750000000 29.8730000000
45.9470127588 21.1058156609 22.5480000000
45.8770000000 21.1250000000 23.4230000000
45.2382813288 21.1519543784 26.0980000000
45.1230000000 21.1250000000 26.8730000000
45.1132730767 21.1652126305 28.3480000000
44.6950000000 21.1250000000 28.6730000000
43.7308183556 21.6702641021 9.9605000000
43.2820000000 21.5750000000 19.3730000000
44.7895000000 21.5750000000 19.9730000000
46.7649471890 21.5615091997 21.9087142857
46.7273341103 21.6473137465 22.6230000000
46.0304061253 21.6779167021 26.0980000000
45.3369723990 21.4615792133 27.5855000000
45.4147346689 21.4756329606 28.2230000000
21.9370000000 21.4250000000 39.1730000000
47.2076295972 21.7455556784 21.8563333333
46.5085183561 21.7690545834 24.6855000000
46.0305919269 21.7707013531 26.8042500000
45.7984756136 21.7721825587 28.2830000000
-5.7721126548 -50.2137738524 4.4230000000
44.4027229274 22.2694536849 3.6605000000
41.0983798162 22.1534976677 17.6980000000
47.6063244278 22.0087175542 20.8480000000
47.5219768886 22.1911581635 22.6614615385
47.4068475659 22.3172084101 23.9730000000
46.7796269971 22.1026648729 25.4855000000
46.7860517741 22.2960555750 27.5730000000
46.2263944974 22.0651332815 27.6130000000
46.2070247249 22.0708450677 28.2980000000
11.2684536650 -40.3658977108 27.7230000000
28.9840000000 22.0250000000 33.7730000000
-43.1709903118 -16.4777093220 19.9230000000
24.4838154940 -33.1706304922 28.5530000000
27.5920000000 22.0250000000 34.9730000000
47.3404447898 22.4296584023 25.4630000000
47.2045683946 22.4254735874 26.0980000000
47.1866091323 22.4189328497 26.8480000000
46.7771247650 22.3805161307 28.2980000000
43.6418109564 22.8698067851 6.4480000000
43.0402394113 22.6679963706 10.0563333333
41.5816231331 22.8178344367 14.8480000000
41.6909493912 22.9177793937 18.6855000000
44.0070000000 22.9250000000 19.9730000000
18.1415315781 -25.6015081196 50.8230000000
46.8100000000 22.7750000000 20.8730000000
48.3096785337 22.6858471684 22.7030000000
48.1623101396 22.7782219880 23.9855000000
48.1151838004 22.8044733273 24.7355000000
47.6432314599 22.7148132570 26.9313333333
31.8490000000 22.6250000000 30.7730000000
24.0760000000 22.6250000000 37.0730000000
22.6180000000 22.6250000000 37.9730000000
35.4750000000 -35.5195000000 5.0230000000
19.9820000000 22.9250000000 39.2730000000
16.0480000000 22.6250000000 41.2730000000
13.5700000000 22.6250000000 42.1730000000
48.8008448387 23.0322083920 23.3855000000
-3.6453208849 -40.0608390356 30.3076153846
-9.9725108499 -44.9872298190 20.5813333333
48.8837458511 23.1198463443 23.9730000000
46.2490000000 23.2250000000 20.8730000000
49.3128402891 23.1796933181 22.0396666667
-35.4121654815 -34.6883836159 9.4063333333
43.0333539309 23.6488030578 7.9396666667
41.5360000000 23.5250000000 18.7730000000
46.0120000000 23.6750000000 20.8730000000
47.3740000000 23.5250000000 21.4730000000
19.3255000000 23.6750000000 39.1730000000
42.9370000000 24.1250000000 5.7230000000
45.7150000000 24.1250000000 20.8730000000
48.1525000000 24.2750000000 22.0730000000
18.6325000000 24.2750000000 39.1730000000
13.6990000000 24.1250000000 41.2730000000
42.9730000000 24.7250000000 0.9230000000
42.9720000000 24.7250000000 1.6730000000
41.5960000000 24.7250000000 10.8230000000
40.8790000000 24.7250000000 13.3730000000
40.1620000000 24.7250000000 15.4730000000
39.4675000000 24.7250000000 17.1230000000
42.3448689118 24.7778808641 19.1980000000
43.6360000000 24.7250000000 19.9730000000
34.6600000000 32.5250000000 14.1230000000
45.3300000000 25.0250000000 20.8730000000
46.5190000000 24.8750000000 21.4730000000
49.3490000000 24.8250000000 22.8730000000
47.8210000000 24.7250000000 25.9730000000
26.8660000000 24.7250000000 33.7730000000
21.9910000000 24.7250000000 37.0730000000
-8.5219920723 -39.3579039642 30.3080000000
19.2130000000 24.7250000000 38.5730000000
18.1480000000 24.7250000000 39.1730000000
15.9520000000 24.7250000000 40.0730000000
14.3740000000 24.7250000000 40.6730000000
-11.4000000000 -44.5127500000 20.6980000000
12.7540000000 24.7250000000 41.2730000000
40.8520000000 25.6250000000 11.2730000000
-2.1520794885 -23.6127702976 44.2230000000
0.5175954676 -41.2289227547 28.9855000000
43.1650000000 25.7750000000 19.9730000000
45.1217152041 25.8505768526 20.7563333333
47.4520000000 25.7750000000 22.0730000000
46.0292409872 25.6139611666 28.7980000000
26.9170000000 25.6250000000 32.8730000000
16.6420000000 25.6250000000 39.1730000000
10.4018180285 -45.8575880795 18.0563333333
40.8640000000 26.2250000000 9.7730000000
40.4259503432 26.5065495074 18.6563333333
21.2959349290 -44.0760869917 13.3230000000
41.6635000000 26.3750000000 19.3730000000
42.9160000000 26.2250000000 19.9730000000
46.1020000000 26.3750000000 21.4730000000
47.3140000000 26.3750000000 22.0730000000
48.6473641458 26.3848942829 22.6480000000
48.5470000000 26.2250000000 23.2730000000
-4.5417468556 -15.1837039124 47.5230000000
22.1170000000 26.2250000000 35.8730000000
41.6275000000 26.8250000000 2.4230000000
41.5600000000 26.8250000000 3.4730000000
40.8850000000 26.8250000000 7.9730000000
39.4540000000 26.8250000000 13.3730000000
40.1909371081 27.1995037970 18.6855000000
42.6949306679 27.1135903231 19.8855000000
44.6780848251 27.1729297116 20.7330000000
45.8909900283 27.2016251173 21.3855000000
47.2300000000 26.8250000000 22.0730000000
22.9180000000 26.8250000000 34.9730000000
19.2580000000 26.8250000000 37.0730000000
14.4535000000 26.9750000000 39.1730000000
13.7485000000 27.1250000000 39.3230000000
41.2660565116 27.7731287639 19.2563333333
42.5440000000 27.8750000000 19.9730000000
47.8654346008 27.9600878965 22.7980000000
47.1970000000 27.7250000000 23.8730000000
40.8130000000 28.3250000000 0.4730000000
39.7289690664 28.5577948529 18.6563333333
40.9975554656 28.4340511662 19.2563333333
42.3284677666 28.3994029339 19.8563333333
-28.3724287272 -29.0295963553 29.8063333333
45.4670690639 28.5775938427 21.3563333333
46.5100000000 28.3250000000 22.0730000000
-12.0685449879 -48.8487042113 5.7230000000
15.0700000000 28.3250000000 37.9730000000
40.1380000000 28.9250000000 2.8730000000
39.5365000000 28.9250000000 7.2230000000
36.7892500000 29.0000000000 16.2980000000
38.5140000000 29.2250000000 18.1730000000
43.9466552616 29.2502098840 20.7855000000
47.2407433909 13.6057951302 8.6730000000
45.7060000000 28.9250000000 25.3730000000
20.0545000000 29.0750000000 34.9730000000
41.7237286580 -28.0438379003 3.0330000000
13.9180000000 28.9250000000 37.9730000000
38.7745000000 29.8250000000 7.8230000000
36.7030000000 29.8250000000 14.8730000000
36.6520000000 29.8250000000 17.2730000000
41.8768662155 29.9332685537 19.8563333333
38.8495000000 30.4250000000 4.5230000000
38.8030000000 30.4250000000 5.1230000000
38.7160000000 30.4250000000 5.5730000000
36.7345000000 30.4250000000 13.5230000000
39.1000000000 30.5750000000 18.7730000000
41.8363354614 30.5251981457 19.7396666667
45.1597281339 15.8989424216 14.2230000000
43.0570000000 30.4250000000 28.2230000000
42.9250000000 30.4250000000 28.6730000000
20.1460000000 30.4250000000 33.7730000000
17.9530000000 30.4250000000 34.9730000000
14.9140000000 30.4250000000 36.4730000000
37.3840000000 31.0250000000 9.9230000000
36.7230000000 31.0250000000 12.1730000000
36.0565000000 31.0250000000 14.1230000000
40.1710000000 31.1750000000 19.3730000000
15.0645564198 -46.0648248138 14.9730000000
43.2790000000 31.3250000000 20.8730000000
42.9790000000 31.0250000000 27.4730000000
20.6860000000 31.0250000000 32.8730000000
18.0970000000 31.0250000000 34.3730000000
25.5750000000 -42.5140000000 9.0730000000
14.9290000000 31.0250000000 35.8730000000
13.5460000000 31.0250000000 36.4730000000
11.6260000000 31.0250000000 37.0730000000
36.7195000000 31.9250000000 9.3230000000
35.2540000000 31.9250000000 13.9730000000
34.5745000000 31.9250000000 15.6230000000
34.6750000000 32.0250000000 16.5730000000
35.6090000000 32.0250000000 17.1730000000
41.8472864174 27.9087975467 19.3230000000
38.5615000000 32.0750000000 18.7730000000
39.7735000000 32.0750000000 19.3730000000
43.1330003419 32.0135052772 20.7563333333
21.0476345777 -45.9028368168 0.3063333333
45.3360246457 32.0824599719 21.8980000000
19.1980000000 31.9250000000 32.8730000000
16.3660000000 31.9250000000 34.3730000000
12.8800000000 31.9250000000 35.8730000000
37.3540000000 32.5250000000 2.4230000000
36.7795000000 32.5250000000 6.6230000000
4.7407716990 -46.9914375246 17.8030000000
36.6700000000 32.5250000000 7.2230000000
35.4490000000 32.6750000000 17.2730000000
38.3725000000 32.6750000000 18.7730000000
42.1750000000 32.5250000000 20.5730000000
45.2524236176 32.7505090515 21.9730000000
-10.6353485861 -29.6424017845 39.0980000000
16.4830000000 32.5250000000 33.7730000000
10.4690486282 -36.0474300368 33.4030000000
36.6950000000 33.1250000000 3.7730000000
45.1332116296 4.0460650019 21.1230000000
35.2795000000 33.1250000000 10.8230000000
34.9250000000 33.4250000000 17.1730000000
35.2720000000 33.1250000000 17.2730000000
38.1650000000 33.4250000000 18.7730000000
15.9311157801 -48.1681139344 2.9730000000
39.5490000000 33.4250000000 19.3730000000
17.2090000000 33.1250000000 32.8730000000
15.1930000000 33.1250000000 33.7730000000
13.9180000000 33.1250000000 34.3730000000
35.2450000000 34.0250000000 7.6730000000
34.5100000000 34.0250000000 10.6730000000
33.2230000000 34.0250000000 14.1230000000
-34.6042893519 -36.0288090716 7.3063333333
37.7965000000 34.1750000000 18.7730000000
9.8204521381 -24.6127955044 45.6301428571
42.4390000000 34.1250000000 20.7730000000
35.4295000000 34.6250000000 2.4230000000
35.3470000000 34.6250000000 3.0230000000
35.2520000000 34.6250000000 3.7730000000
33.8290000000 34.6250000000 10.6730000000
32.5510000000 34.6250000000 14.1230000000
33.4465000000 34.7750000000 16.6730000000
34.5520000000 34.6250000000 17.2730000000
37.5490000000 34.7750000000 18.7730000000
43.1170000000 34.7750000000 21.4730000000
43.6825000000 34.6250000000 21.9230000000
18.0460000000 34.6250000000 30.7730000000
13.7830000000 34.6250000000 32.8730000000
34.7402500000 35.3750000000 0.9230000000
34.6925000000 35.3750000000 1.6730000000
34.6682500000 35.3750000000 2.4230000000
34.7545000000 35.2250000000 3.0230000000
34.5580000000 35.2250000000 4.5230000000
34.5220000000 35.2250000000 4.9730000000
33.1630000000 35.2250000000 10.8230000000
32.5150000000 35.2250000000 12.7730000000
-19.0932204403 -43.1061813275 18.0158571429
31.8720000000 35.2250000000 14.2730000000
33.3760000000 35.5250000000 16.6730000000
37.4020000000 35.5250000000 18.7730000000
-36.6542942164 -0.2736503243 38.7230000000
43.0090000000 35.2250000000 21.4730000000
41.5750000000 35.2250000000 24.4730000000
40.2760000000 35.2250000000 26.5730000000
16.7230000000 35.2250000000 30.7730000000
13.9480000000 35.2250000000 32.2730000000
5.4983856465 -41.6737061183 27.6930000000
38.4580000000 35.8250000000 19.3730000000
-7.1413290211 -39.1660190240 30.9118888889
33.8230000000 36.1250000000 3.4730000000
33.1090000000 36.1250000000 7.6730000000
31.7515000000 36.2750000000 15.7730000000
33.3190000000 36.2750000000 16.6730000000
12.0222294937 -27.3282628793 50.6230000000
25.5750000000 -33.5500000000 27.3730000000
38.3530000000 36.2750000000 19.3730000000
41.6500000000 36.1250000000 20.8730000000
35.8900000000 36.4250000000 18.1730000000
33.3690000000 36.7250000000 1.6730000000
33.1405000000 36.7250000000 3.6230000000
32.4310000000 36.7250000000 7.6730000000
31.1350000000 36.7250000000 12.0230000000
30.3280000000 36.7250000000 13.9730000000
29.8795000000 36.8750000000 15.6230000000
33.3520000000 36.8750000000 16.6730000000
35.8780000000 36.8750000000 18.1730000000
38.1805000000 36.8750000000 19.3730000000
6.8124461806 -30.9174853334 38.9105000000
39.7450000000 36.8750000000 19.9730000000
41.2330000000 36.8750000000 20.8730000000
42.4120000000 36.7250000000 21.4730000000
-31.1377764160 -38.1915847312 10.9063333333
40.2820000000 36.7250000000 24.4730000000
13.5760000000 36.7250000000 30.7730000000
32.6560000000 37.3250000000 0.9230000000
32.5705000000 37.3250000000 2.4230000000
32.4370000000 37.3250000000 3.4730000000
31.8220000000 37.3250000000 7.2230000000
4.0750000000 -21.9160000000 44.8730000000
31.0855000000 37.3250000000 9.9230000000
30.4180000000 37.3250000000 11.8730000000
18.6750000000 -33.3190000000 33.2230000000
29.7325000000 37.3250000000 13.5230000000
28.9525000000 37.3250000000 15.6230000000
33.3670000000 37.3250000000 16.6730000000
36.8250000000 37.6250000000 18.7730000000
39.4660000000 37.3250000000 19.9730000000
40.9540000000 37.3250000000 22.3730000000
38.1130000000 37.3250000000 27.4730000000
31.0615000000 38.2250000000 5.7230000000
30.3820000000 38.2250000000 8.7230000000
28.9510000000 38.2250000000 12.7730000000
34.2370000000 38.3250000000 17.1730000000
35.8405000000 38.3750000000 18.1730000000
36.7255000000 38.3750000000 18.7730000000
38.9695000000 38.3750000000 19.9730000000
30.4930000000 38.8250000000 5.1230000000
-1.5743330708 -46.3193680344 19.8230000000
30.3670000000 38.8250000000 5.7230000000
29.8660000000 38.8250000000 7.9730000000
26.4300000000 38.8250000000 16.3730000000
36.8005000000 38.9750000000 18.7730000000
30.8405559865 -40.2472044291 -0.2020000000
38.8165000000 38.9750000000 19.9730000000
39.5140000000 38.8250000000 22.3730000000
30.5410000000 39.4250000000 0.1730000000
-20.0443559263 -3.7455446199 45.7230000000
29.8430000000 39.4250000000 3.7730000000
29.6530000000 39.4250000000 4.9730000000
29.1400000000 39.5750000000 6.6230000000
29.1745000000 39.4250000000 7.2230000000
28.9900000000 39.4250000000 7.9730000000
26.1835000000 39.4250000000 15.0230000000
25.5310000000 39.4250000000 16.2230000000
25.2190000000 39.4250000000 16.9730000000
40.1290000000 39.4250000000 20.5730000000
39.5725000000 39.4250000000 21.3230000000
36.6700000000 39.4250000000 25.9730000000
24.1720000000 40.3250000000 16.0730000000
-2.2185172965 -40.1401701578 30.3230000000
38.9875000000 40.4750000000 19.9730000000
14.3570960852 -45.4994929422 16.9230000000
38.7370000000 40.3250000000 21.1730000000
26.3970000000 41.0250000000 9.2730000000
25.4650000000 40.9250000000 12.0230000000
25.0210000000 40.9250000000 12.9230000000
24.7960000000 40.9250000000 13.3730000000
24.2245000000 41.0000000000 14.1980000000
38.8030000000 40.9250000000 20.2730000000
35.8030000000 40.9250000000 25.5230000000
35.5690000000 40.9250000000 25.9730000000
34.9780000000 40.9250000000 26.5730000000
1.2675537604 -19.0492038989 46.2855000000
27.1412500000 41.6750000000 0.3230000000
14.6250000000 -48.6715000000 -0.2270000000
27.1645000000 41.5250000000 0.9230000000
-0.8250968068 -42.1511772633 27.5730000000
27.0910000000 41.5250000000 2.4230000000
26.9120000000 41.5250000000 3.7730000000
26.8210000000 41.5250000000 4.3730000000
26.3395000000 41.5250000000 6.6230000000
25.7470000000 41.5250000000 8.7230000000
24.9370000000 41.5250000000 10.8230000000
24.3460000000 41.5250000000 12.1730000000
24.0970000000 41.5250000000 12.7730000000
23.6725000000 41.5250000000 13.5230000000
23.3830000000 41.5250000000 14.1230000000
22.8355000000 41.5250000000 15.0230000000
22.6210000000 41.5250000000 15.4730000000
22.1755000000 41.6750000000 15.6230000000
22.1110000000 41.5250000000 16.0730000000
21.3910000000 41.5250000000 17.1230000000
20.8150000000 41.6250000000 17.6730000000
38.2360000000 41.5250000000 19.9730000000
37.8160000000 41.5250000000 20.8730000000
37.1530000000 41.5250000000 21.7730000000
25.4050000000 42.4250000000 4.3730000000
24.7420000000 42.4250000000 7.0730000000
24.7240000000 42.4250000000 7.6730000000
14.3080000000 46.6250000000 9.9230000000
24.2350000000 42.4250000000 8.7230000000
24.1060000000 42.4250000000 9.1730000000
23.4235000000 42.4250000000 10.8230000000
11.8864744964 -28.7545003239 49.1730000000
4.0949170978 -35.3108385609 35.4896666667
20.6350000000 42.4250000000 16.0730000000
19.4050000000 42.4250000000 17.5730000000
24.7730000000 43.0250000000 1.6730000000
24.3302500000 43.1750000000 3.0230000000
24.4550000000 43.0250000000 3.7730000000
36.5524708399 -29.1632049765 18.1230000000
24.3610000000 43.0250000000 4.5230000000
24.0880000000 43.0250000000 5.8730000000
22.7210000000 43.0250000000 10.0730000000
21.3520000000 43.0250000000 12.7730000000
20.7205000000 43.0250000000 14.1230000000
17.7760000000 43.0250000000 17.5730000000
16.7800000000 43.0250000000 18.4730000000
24.0520000000 43.6250000000 0.1730000000
23.5885000000 43.6250000000 2.4230000000
23.4670000000 43.6250000000 3.0230000000
23.4490000000 43.6250000000 3.7730000000
23.3665000000 43.6250000000 4.5230000000
22.9307500000 43.7750000000 5.1230000000
22.7575000000 43.6250000000 6.6230000000
22.3780000000 43.6250000000 7.9730000000
22.1125000000 43.6250000000 8.7230000000
21.5130000000 43.6250000000 10.0730000000
20.8480000000 43.6250000000 11.4230000000
20.6500000000 43.6250000000 11.8730000000
20.1025000000 43.6250000000 12.9230000000
19.8520000000 43.6250000000 13.3730000000
18.6805000000 43.6250000000 15.0230000000
16.8100000000 43.6250000000 17.1230000000
16.1050000000 43.6250000000 17.7230000000
15.6190000000 43.6250000000 18.1730000000
15.1540000000 43.6250000000 18.6230000000
-40.1226529781 4.6018509320 35.9730000000
22.8910000000 43.9250000000 4.3730000000
22.1395000000 44.5250000000 0.9230000000
20.1640000000 44.5250000000 9.3230000000
19.2865000000 44.5250000000 10.8230000000
17.1010000000 44.5250000000 13.9730000000
45.0750000000 -21.6385000000 6.5230000000
14.3140000000 44.5250000000 16.9730000000
19.8430000000 45.1250000000 6.4730000000
19.2685000000 45.1250000000 7.8230000000
18.8410000000 45.1250000000 8.7230000000
18.5965000000 45.1250000000 9.3230000000
18.4450000000 45.1250000000 9.7730000000
17.8270000000 45.1250000000 10.8230000000
17.1115000000 45.1250000000 12.0230000000
16.1080000000 45.1250000000 13.5230000000
14.6635000000 45.1250000000 15.0230000000
13.8820000000 45.1250000000 15.6230000000
19.4215000000 45.7250000000 0.9230000000
19.3740000000 45.7250000000 1.6730000000
19.2505000000 45.7250000000 3.0230000000
19.0135000000 45.7250000000 4.5230000000
18.5920000000 45.7250000000 5.8730000000
18.2965000000 45.7250000000 6.6230000000
18.0430000000 45.7250000000 7.2230000000
11.6428667056 -47.5773262187 13.4730000000
17.8105000000 45.7250000000 7.8230000000
17.3815000000 45.7250000000 8.7230000000
4.0765168895 -48.5045477588 13.4980000000
17.1145000000 45.7250000000 9.3230000000
16.2250000000 45.7250000000 10.8230000000
11.2712820921 -25.9578899374 49.1230000000
15.6160000000 45.7250000000 11.8730000000
15.1975000000 45.7250000000 12.3230000000
14.3170000000 45.7250000000 13.5230000000
17.0575000000 46.6250000000 0.9230000000
17.0545000000 46.6250000000 1.5230000000
16.3300000000 46.6250000000 5.5730000000
15.2340000000 46.6250000000 7.9730000000
15.0760000000 46.6250000000 8.5730000000
15.3445000000 47.2250000000 2.4230000000
22.2835553710 -35.0731540924 33.1448750000
15.1780000000 47.2250000000 3.0230000000
14.7205000000 47.2250000000 4.5230000000
48.5831856150 8.1621335752 8.0230000000
14.3140000000 47.2250000000 5.8730000000
13.8430000000 47.2250000000 7.2230000000
-7.9250000000 -33.1680000000 36.8730000000
13.5130000000 47.2250000000 7.6730000000
12.6130000000 47.2250000000 9.3230000000
12.2545000000 47.2250000000 9.9230000000
13.6225000000 47.8250000000 0.9230000000
13.6390000000 47.8250000000 1.5230000000
-24.0464047926 -44.4286317459 2.3674444444
-23.9721694362 -44.4216126685 3.0515714286
-23.2144992784 -44.4156662099 6.5830000000
-21.2643565518 -45.9371774953 0.8980000000
-21.2185918232 -45.9317365442 1.6630000000
-21.2069458330 -45.8987374476 2.3480000000
-21.1554803419 -45.8517629912 3.0230000000
-22.6056919028 -44.4806831889 8.0674444444
-16.3071980044 -32.5012759944 34.7030000000
-20.4564277510 -46.3756172367 0.2563333333
-20.4480197591 -46.3192142255 0.9158571429
-19.8236663590 -46.5809215761 1.6630000000
-19.7684633072 -46.4901398567 3.0386250000
-19.7760369836 -46.4237587759 3.7406470588
-21.1764148366 -45.1910675588 8.0917500000
-22.6105253113 -43.7094064152 11.4139090909
14.6087902772 -31.6488930200 38.8030000000
-19.8644011256 -45.9065605150 7.3438333333
-20.7037877029 -45.2304213090 8.7980000000
-21.3125329487 -44.5122532769 10.7830000000
-19.0504331561 -46.3800445850 6.5530000000
-20.5428733377 -44.4803400432 12.2341111111
-20.4442312286 -44.3622110800 12.8530000000
-17.6181007461 -47.2203119281 4.4480000000
-18.3153317932 -46.4515416806 8.0684545455
-16.3035226625 -47.9241226780 0.9230000000
-16.3151456313 -47.9213836814 1.6537692308
-16.3045602903 -47.8656178630 2.3530000000
-16.9957017610 -47.3021600928 5.9105000000
-17.6697422586 -46.4036633281 9.3198750000
-18.4105226057 -45.8249610499 10.7674444444
-19.1134709801 -45.2110601995 12.2542500000
-19.7609925600 -44.4047279328 13.5896666667
-15.5390556750 -48.1519595512 2.3372857143
-17.0477174709 -46.6098199954 9.4396666667
-17.7767441272 -45.8775910643 11.4880000000
-20.5433258356 -43.0782473630 16.4167500000
-14.7850256371 -48.4645270587 0.2684545455
-14.7990803138 -48.4205132783 1.6641764706
-4.7602428509 -50.1918535422 5.8230000000
-15.5500632688 -47.9684261215 4.4230000000
-15.4963860598 -47.8917106316 5.1330000000
-15.5230706787 -47.8319503827 5.8792500000
-16.9376409499 -46.3592078317 10.7530000000
-14.1617761954 -48.6191644557 0.9158571429
-14.8815353066 -48.0059281960 5.9007777778
-15.6293736034 -47.2847976960 8.6593636364
-16.9843787141 -45.9375094061 12.3330000000
-16.9561389848 -45.8452371923 12.8674444444
-18.3401133990 -44.3522426569 15.6230000000
-19.0769496604 -43.7614701173 16.4530000000
-20.5972191604 -42.4117640958 17.9980000000
-14.0797964908 -48.6301575319 1.6537692308
-14.0965208007 -48.5789977218 2.3530000000
-14.0850182025 -48.5198109286 3.7537692308
-35.4133218154 -35.4486771544 5.9730000000
-14.8250608758 -47.7980399843 7.3030000000
-16.2112556969 -46.4352895304 11.4411818182
-20.4273792301 -42.2481123151 18.5674444444
-13.3271950584 -48.8246625808 2.2980000000
-13.4441860752 -48.6547944138 3.0422307692
-14.0153963511 -48.1967661954 6.5444285714
-14.2093543803 -47.9744349880 7.3230000000
-14.1941015365 -47.8620241076 8.0530000000
-14.1069029990 -47.7723067818 8.6411818182
-14.8579413412 -47.2675842163 10.1230000000
-15.5706930156 -46.4862666063 12.2087142857
-17.6489349436 -44.3564207514 16.4087142857
-20.5109871214 -41.5804111993 19.8952222222
-12.7150263862 -49.0430024617 0.2530000000
-12.8912169107 -48.7024352136 4.4480000000
-13.5617202314 -48.0207376389 8.0792500000
-14.1860680657 -47.2984206755 10.7658571429
-17.7419934048 -43.7676680812 17.8730000000
-19.0567760698 -42.3099265237 19.8230000000
44.4692383620 29.9537503578 20.8230000000
-12.5639940701 -48.8492607455 4.4146666667
-12.7196901440 -48.6677977247 5.1411818182
-12.7039174132 -48.4266230460 7.3396666667
-13.4316985428 -47.9473728682 8.6730000000
-14.8170709499 -46.3766366942 13.5230000000
-15.5496902045 -45.8608126415 14.3230000000
-18.0100097168 -43.3315035511 19.0230000000
-11.3394881203 -49.3863556569 0.3080000000
-11.3420642024 -49.3483118151 0.9259411765
-12.0006637052 -48.9570309249 4.4684545455
-12.7309214958 -47.9147884511 10.0296666667
-13.5103216198 -47.2584473109 11.5130000000
-14.2118732895 -46.5345060593 13.5411818182
-14.8890190649 -45.8915448745 14.9480000000
-15.5739721003 -45.1264404723 16.4153076923
-16.9495206275 -43.7808729472 18.6158571429
-10.6711408022 -49.5886479188 0.2292500000
-11.3032299941 -49.2366532066 3.0330000000
-11.2906479349 -49.2078274146 3.7630000000
-11.3392924400 -49.0196849600 5.1330000000
-11.3503710531 -48.9580636917 5.8636250000
-11.2686925005 -48.8755694288 6.5280000000
-14.1311203641 -46.3633705454 14.2515714286
24.8512678248 -33.7961686068 32.3730000000
-10.6596347264 -49.5745493222 0.8730000000
-10.6176359866 -49.4204671029 2.3658571429
-10.5977794073 -49.2980650913 4.4530000000
-10.6428779972 -49.1320269977 5.8301428571
-11.1827523231 -48.8503305569 7.2030000000
13.9837437047 -48.8426938037 1.6230000000
-11.3802929881 -48.5915862234 8.0593636364
-11.3501149807 -48.4996627319 8.6515714286
-11.9139411410 -48.1802357650 9.9372857143
-12.0876732914 -47.9001615751 10.7530000000
-12.7063553045 -47.4670175609 12.0230000000
-12.7173630085 -47.0124447135 13.4944285714
-13.4718564068 -46.5024853785 14.3593636364
45.1883659585 20.1129452841 19.3230000000
-16.3366260343 -43.7469280909 19.1674444444
-17.6744925119 -42.2196309519 21.2230000000
26.2417933100 -34.9745620577 35.9730000000
-9.9931089040 -49.6191716307 0.9230000000
-9.9796501116 -49.5995164793 2.3396666667
-10.0650711755 -49.4192675358 3.7801428571
-9.9893070154 -49.3933383802 4.4674444444
-10.5941470458 -48.9198784145 7.2837142857
-10.7285507360 -48.7143814509 8.0658571429
-11.2857150248 -48.2620674223 10.0537692308
-11.2908105577 -48.1373057679 10.7146666667
-11.4444330507 -48.0000693802 10.8015714286
-12.1161434445 -47.3048995002 12.8855000000
-13.3863132273 -46.1486805981 15.5845384615
-17.0566470212 -42.4018434084 21.4030000000
-9.2362737402 -49.7588154181 0.9259411765
-9.2446245170 -49.7534813962 1.6563333333
-9.2503568036 -49.6964011973 2.3515714286
-9.8240702133 -49.5804418787 3.7230000000
-9.9963207619 -49.2789704934 5.8537692308
1.2789234297 -47.5298401489 16.9417500000
-9.9837906307 -49.1621457300 6.5530000000
-9.9293773363 -49.0621248492 7.3063333333
-10.4687158955 -48.8728165526 8.0430000000
-11.3001187243 -47.8817348957 11.4330000000
-11.8788635938 -47.4728511918 12.7980000000
-12.7148142541 -46.5268830372 14.9530000000
36.0750000000 -23.6020000000 25.8730000000
-12.6861995749 -46.3170543076 15.6306923077
-9.2007829750 -49.6413120304 3.0330000000
-9.0979639521 -49.5966334472 4.4605000000
-9.2991471715 -49.3813767850 5.9087142857
-9.2444474112 -49.3032121979 6.5515714286
-9.9288484338 -48.9283690960 8.0530000000
-9.9220726087 -48.8572895667 8.5730000000
-10.5699708038 -48.1575189713 11.3146666667
-10.6286014767 -47.9800533325 11.5313333333
16.4985901372 -45.4473494434 14.9063333333
-10.6412112455 -47.8879555935 12.1515714286
-12.0401294655 -46.4701727511 15.6230000000
-12.6967231727 -46.1283955553 16.2417500000
-12.7787775691 -45.9223336702 16.5330000000
-5.0106967497 -45.7805502121 20.5691538462
-13.5735815080 -45.1724091251 17.9430000000
-14.2045297526 -44.4449972293 19.1855000000
47.1750000000 -13.3135000000 11.3230000000
-16.3318693869 -42.3239200853 21.9952222222
-8.5108372884 -49.9150091458 1.6537692308
-8.5057761405 -49.8593734026 2.3530000000
-8.5862562226 -49.5775191707 5.7930000000
-8.5589392401 -49.4505937173 5.9030000000
-27.1868415231 -6.4332574952 41.5230000000
-9.1879522788 -49.1933241142 7.2980000000
-9.2659664603 -48.9294356911 8.6614615385
-9.1872489072 -48.8890867859 9.2292500000
-10.6020220480 -47.6838702225 12.8530000000
-10.6015101139 -47.5225390899 13.4457272727
-11.3906553973 -46.5744290763 15.6866363636
-12.0678638957 -46.2116026034 16.3730000000
-7.9129604102 -50.0838570570 0.2917500000
-7.8789496682 -50.0314493472 1.6537692308
-7.8667557839 -49.9684949934 2.3530000000
13.8733589917 -46.3591241258 14.2417500000
-8.5194083440 -49.3994923348 6.5658571429
-8.5096644185 -49.3332846468 7.3230000000
-9.2479324375 -48.5101653447 10.7515714286
-10.0032134487 -47.9842043384 12.2674444444
-9.9490001984 -47.8300437063 12.8684545455
-10.6039500674 -47.4166362027 13.9980000000
-10.6305045738 -47.2402874798 14.3674444444
-11.1815791658 -46.7843442659 15.4730000000
-11.3507790830 -46.3898290229 16.3605000000
-12.0960226587 -45.9048874512 17.1087142857
-12.0337541231 -45.6853232605 17.8042500000
21.3750000000 -37.7020000000 42.0730000000
-12.6271593450 -45.3605464597 18.4230000000
-13.4318399641 -44.3888894574 19.8530000000
-15.5788674549 -42.2597159821 22.7153076923
-16.3243695168 -41.6436969957 23.3674444444
-17.6426995214 -40.1697261567 24.8383846154
-7.1796130731 -50.3104740823 0.1944285714
-7.1719463736 -50.0732433076 1.6922307692
-7.1765314892 -50.0426116357 2.3593636364
-7.9013134349 -49.3869733933 7.3230000000
-8.4928686092 -48.9462959097 9.3230000000
-8.4736141123 -48.8829988902 9.9855000000
8.2890070903 -46.4556589842 17.8015714286
-9.3283993698 -48.0488279601 12.3230000000
-9.9381313518 -47.6282273409 13.5230000000
-10.6028705761 -46.8657996387 15.5530000000
-10.6630661794 -46.5470931564 16.3813333333
-12.0964100802 -45.4218330184 18.5230000000
-12.7936127663 -44.4856713960 20.0355000000
-14.2433042464 -43.0324564723 22.0301428571
-6.4277578656 -50.3012255126 0.2411818182
-7.1104862212 -49.9997255694 3.0480000000
-7.0710032196 -50.0024056102 3.7630000000
-7.1910184477 -49.8913044047 4.4480000000
-7.1533328219 -49.8055976605 5.1386250000
49.2294812130 5.3945176337 6.5230000000
-7.1380712781 -49.7455755581 5.8563333333
-7.1180974725 -49.6396327851 6.5383846154
-7.7155451353 -49.5536391645 7.2801428571
-7.8485366579 -49.0671114652 9.3306923077
-8.5138371578 -48.6460392044 10.7530000000
-8.5075712545 -48.3570457956 12.1296666667
-9.2371282636 -47.7526290949 13.5330000000
-9.2099817444 -47.5952917415 14.2096666667
-9.9543055958 -46.9782242955 15.6306923077
-10.6294370042 -46.2965582195 17.0684545455
-11.1528417063 -46.0520968917 17.5230000000
-12.0617893732 -45.0918056151 19.1674444444
-12.7155546339 -44.3170545388 20.5537692308
-13.4655404564 -43.7064894448 21.2952222222
-6.3780505804 -50.2770129928 0.9301428571
-6.4602716755 -50.0163271271 4.4563333333
-6.4326955499 -49.9321628132 5.1076153846
-7.0405276153 -49.5904621623 7.2063333333
-8.4097469944 -26.6812957336 41.6301428571
-7.1336280636 -49.3194897566 8.6515714286
-7.8308540483 -48.8437544639 10.6980000000
-7.9150854583 -48.6872950486 10.7896666667
-7.8294696757 -48.6067269634 11.4158571429
-8.4709421805 -48.1926923299 12.8146666667
-8.5474204788 -48.0412316492 12.9105000000
-9.2736149735 -47.3006681283 14.9730000000
-9.2239463760 -47.1141403163 15.6198750000
-10.0522968779 -46.6094567867 16.5330000000
-9.9231901519 -46.4793383224 17.0563333333
-10.5913295347 -46.0969664316 17.6785555556
-10.6367991476 -45.9120605440 17.9896666667
-11.4134200161 -45.2189414281 19.2167500000
-14.1884832509 -42.3467102948 23.4007777778
-16.9330172004 -39.5500643166 26.2896666667
-5.6936765020 -50.3167311886 1.6330000000
-5.7656427579 -50.2614752068 2.3444285714
-5.8200443866 -50.1162905339 3.0372857143
-6.4006460482 -49.8754995721 5.8537692308
-35.3093771186 -34.0719402515 11.5230000000
-6.3887412937 -49.7613403940 6.5530000000
-6.4573286811 -49.6314408980 7.3417500000
-6.4534023792 -49.4278665095 8.0030000000
-7.1520376567 -49.0611846514 10.0630000000
-36.8470540766 -33.9594342201 5.8855000000
-7.8232642028 -48.2586991155 12.8580000000
-9.2236581377 -46.8974382156 16.3663333333
-9.9336264450 -46.1895961271 17.7837142857
-10.1950345712 -45.9626376505 18.0980000000
-10.6029621030 -45.4763515989 19.1813333333
-5.6697589482 -50.2613267834 2.9730000000
-5.7913392206 -50.0637970500 4.4658571429
-5.7700207935 -50.0121364032 5.1230000000
-5.7338447071 -49.9553603998 5.8515714286
-5.7011269882 -49.8705696146 6.5563333333
-5.7981209233 -49.7409221682 7.2855000000
-6.3837994277 -49.3115453232 9.3230000000
-6.4232009272 -49.1992928903 10.0480000000
-24.1690241726 -32.6178425293 29.7980000000
-7.1871053513 -48.5577196935 12.1792500000
-7.1151602598 -48.3568351836 12.8383846154
-7.8939271619 -47.9710799988 13.5855000000
-7.8295448266 -47.8261755435 14.2696666667
-9.2339059900 -46.5553530647 17.0730000000
-9.2408465931 -46.3163673089 17.7993157895
-10.0062775781 -45.8506722211 18.5674444444
-9.8926887856 -45.6567035270 19.1411818182
41.7277853714 31.9880965673 19.8230000000
-10.5196275837 -45.3297873147 19.6230000000
-11.3419327451 -44.3415239749 21.2515714286
-12.1161223020 -43.7493039153 22.0292500000
-12.0954158649 -43.5024374816 22.6537692308
-12.7681709673 -43.1022934768 22.8330000000
-12.7239359316 -42.8568705401 23.3530000000
-15.5743852236 -40.1408249937 26.1922307692
37.4900944317 6.8101454096 32.2230000000
-5.0888435573 -50.3088757789 2.3480000000
-5.0776968700 -50.3025356787 2.9605000000
-5.0304664584 -50.1018072502 4.4430000000
-5.0363918655 -50.0410703146 5.8605000000
-5.8515529201 -49.4296511563 8.7105000000
-5.7993009061 -49.3479801186 9.3630000000
-6.4572664716 -48.6519899620 12.2063333333
-7.8903024397 -47.5919188373 14.9530000000
4.0524598270 -30.8578512419 39.4063333333
-9.3364603871 -45.9017028741 18.6230000000
-9.9612718831 -45.4079771790 19.6944285714
-10.6281891300 -44.4713837147 21.2855000000
-11.3969177042 -43.6649337270 22.7021666667
-11.2554552186 -43.9701541130 22.4646666667
-12.1183579157 -43.0199552318 23.3674444444
-12.7843519718 -42.3732783622 24.1801428571
-4.3422709151 -50.4621550078 0.9158571429
-4.3540130644 -50.3890874713 2.3563333333
4.0809900885 -28.9339821420 40.7674444444
-4.9925942119 -49.9634067853 6.5320909091
-5.0645149316 -49.8268492443 7.3151052632
-4.9875100160 -49.6305789155 8.6271666667
-6.4544706987 -48.8313800952 11.8230000000
-6.3591042254 -48.4763843295 12.8684545455
-6.4460901380 -48.2922271896 13.4883846154
-7.1641138061 -47.6826321205 14.9614615385
-7.0937596988 -47.5132477573 15.5271666667
15.9773352229 -47.6680736582 5.1313333333
-7.8738536367 -47.1352497306 16.3813333333
-7.8169315409 -46.9292144133 17.0563333333
-10.4305321293 -44.6799561828 21.1230000000
0.5016922613 -40.4751457085 30.1230000000
-16.9153214650 -38.0541959624 28.3730000000
-3.7103139481 -50.5848328519 0.2411818182
-4.3017500544 -50.3346393206 3.7139090909
-4.3101320738 -50.0843149684 5.1480000000
-4.2649182218 -50.0538754587 5.8630000000
-4.3282682274 -50.0520877225 6.5684545455
-5.0689852566 -49.3630467621 9.4118888889
5.2711405077 -49.5700389781 8.6563333333
-5.0427336283 -49.2992981356 10.0759411765
-5.7366263667 -48.6700951267 12.2674444444
-5.7134463592 -48.5686760443 12.8230000000
-6.5379092989 -36.9081455508 33.7230000000
-6.3656580870 -48.1799933284 14.0430000000
-6.4487703055 -47.9528391869 14.4007777778
-7.1754380894 -47.2179971432 16.3980000000
-7.8372180093 -46.7637998670 17.5980000000
-9.1322840790 -45.3799918962 20.2230000000
-15.8908106936 -11.6835253455 46.0230000000
-9.9066574773 -44.3288514202 21.9076153846
-10.6074474632 -44.0216368690 22.5146666667
-10.6723684367 -43.7232081050 22.8587142857
-11.9849296110 -42.6691212738 24.4980000000
-12.7048440485 -41.6409569480 25.4830000000
-16.9208825192 -37.4677051872 29.2030000000
-3.6659908197 -50.4851074064 2.3530000000
-3.6490302397 -50.2726771690 4.4730000000
-3.7183014365 -50.1236677251 5.2301428571
-4.2937681785 -49.6471177318 8.6530000000
-4.3502165722 -49.4094668750 9.4301428571
-4.9951790790 -48.9073940742 12.0480000000
-6.3957416508 -40.6449394379 29.0530000000
-5.7898197834 -48.3715034497 13.5230000000
-5.7264115735 -48.2074847304 14.1792500000
-6.3763627365 -47.5732868513 15.5911818182
-6.4235501637 -47.2806791946 16.4341111111
-7.1130847262 -46.9974616277 17.0320909091
-8.5068339681 -45.6263354591 19.8230000000
-8.5139191989 -45.4418637396 20.3730000000
-9.2408674363 -44.8093590798 21.2480000000
-9.9575880416 -44.0831041171 22.5530000000
-11.2950623382 -42.6589687920 24.6118888889
-12.6363390583 -41.3166918713 26.0396666667
-12.8619333265 -41.0019792571 26.3130000000
-13.4041544449 -40.5695877572 26.7830000000
-14.9043214435 -38.8249595553 28.4917500000
-2.9340393373 -50.5493449838 1.6563333333
-2.9044487064 -50.4404851061 3.0198750000
-3.6364420203 -50.0713122788 5.8801428571
23.8966736702 -35.5356512885 32.5230000000
-3.6674039614 -50.0387802479 6.5855000000
-4.3009806676 -49.3489091606 10.1230000000
-4.3267254490 -49.2015564363 10.7684545455
-4.3221944358 -49.0598428172 11.4076153846
-5.0358105487 -48.5878415448 12.8730000000
-5.0430359977 -48.4241686466 13.5259411765
-5.0536552669 -48.2490116596 14.2122857143
-6.4556020695 -47.4765635024 16.1430000000
-7.1601975224 -46.3851184684 18.5614615385
19.7494923985 -45.8770879634 6.5730000000
-7.8449467311 -45.7319082707 19.8306923077
-7.8095738822 -45.4807621831 20.4896666667
-8.5316829917 -44.9560187283 21.2684545455
-9.2328270147 -44.3798653050 21.9820909091
-9.2102574728 -44.1545245185 22.6448750000
15.6750000000 -31.9780000000 36.0730000000
-10.0113169036 -43.8286364884 22.8980000000
-10.4615034063 -43.2831374473 23.9430000000
-11.3215006586 -42.3804511668 24.9515714286
-12.7396210225 -40.7393884000 26.8515714286
-13.4282244328 -40.0298439058 27.5383846154
-2.9537581261 -50.0429874451 6.5430000000
-2.9494277097 -49.9770725204 7.2813333333
-3.6231734812 -49.5954222963 9.2785555556
-3.6653805263 -49.3750248541 10.0866363636
-4.3133141439 -48.9007945883 12.1093636364
-4.3414978862 -48.6554483927 12.8530000000
2.5681671876 -29.4021860194 40.6063333333
-5.0047435921 -47.9317474300 14.9593636364
-5.7694413575 -47.2981799518 16.4896666667
-6.4145966898 -46.8525777985 17.7576153846
-6.4494604923 -46.6367821264 18.1063333333
-7.1128574428 -46.1717492293 19.1366363636
-7.8818171583 -45.0981210903 21.2530000000
-8.5271194350 -44.4453797575 22.1030000000
-9.2482316356 -43.7338067890 23.3593636364
-12.0816264634 -41.1974552855 26.5230000000
-14.3364978952 -38.9295802933 28.6063333333
12.5142264941 -47.2966612533 12.2007777778
-2.1784303879 -50.5221992895 2.3530000000
-2.1798032002 -50.4900769422 3.0230000000
-2.2606936531 -50.4572896423 3.7480000000
-2.2534113075 -50.3685155106 4.4563333333
-2.9098454198 -50.2791307220 5.7801428571
-2.9529022873 -49.8434329681 8.0614615385
-2.9291114542 -49.7215469224 8.6515714286
-2.9320446680 -49.6182418057 9.2230000000
-3.7029317812 -48.9379951003 12.1576153846
-5.7923434166 -46.9018572659 17.7837142857
-6.4422214134 -46.2907945340 19.1684545455
-7.8539460482 -44.7810519732 21.8411818182
-9.0304607025 -43.9297158880 23.2230000000
-9.2105229381 -43.4792990452 24.0163333333
-9.1933781049 -43.3234425338 24.4830000000
-10.5295061919 -42.0703649398 25.9872857143
31.8750000000 -13.1530000000 36.3730000000
12.0750000000 -29.4260000000 49.2730000000
13.9261040872 -48.4556166288 3.7230000000
-12.0261951032 -40.5104656189 27.4515714286
-2.2055435957 -50.1369456793 5.9396666667
-2.1892690618 -50.0591079962 6.5658571429
-3.6613051654 -48.6822449809 12.8855000000
-4.2753748739 -47.9802878984 14.9658571429
-5.0693981208 -47.2254835010 17.0730000000
-6.3563572081 -46.0733647167 19.7146666667
-6.4289193168 -45.8385753207 19.9313333333
-7.1269697321 -45.1786634391 21.2866363636
-7.8706275653 -44.3689628637 22.6768461538
-8.5154960262 -43.5973789759 24.0230000000
-9.2027196719 -42.9354323503 24.8593636364
-9.8386837534 -42.5522718782 25.4230000000
-10.0374940111 -42.3819627005 25.4658571429
-9.9561355486 -42.1167507063 26.0411818182
24.3063301058 -28.6276121209 46.8855000000
-10.6600670940 -41.6742302957 26.3130000000
-12.1442509390 -40.2671814583 27.6980000000
-12.7978905199 -39.5410425364 28.5292500000
-14.2435108738 -38.1240936533 29.7158571429
-23.2258061115 -7.1391268396 43.7730000000
-1.5801667017 -50.5249626114 3.0230000000
-1.5607775128 -50.4910229565 3.7537692308
-1.4921453000 -50.3874483840 4.4563333333
-2.2627416998 -49.5936412053 9.9563333333
-2.2786675620 -49.4248820380 10.1658571429
4.0380922771 -49.7535946089 8.0341111111
-2.9741855831 -48.9586135361 12.1636250000
-3.6405867081 -48.3417452730 14.2730000000
-3.6669500321 -48.1480336900 14.9146666667
-4.3090628661 -47.5674242725 16.3576153846
-5.0595484946 -46.5990424160 18.5563333333
-5.7125493325 -46.1199844006 19.6792500000
-5.8305736983 -45.8848549905 20.0130000000
-6.3925967770 -45.3670792011 21.2444285714
-7.1195046264 -44.6817239498 22.4230000000
-7.8300524279 -44.0453969332 23.3580000000
-10.8439917678 -41.0593601104 27.0980000000
-17.9250000000 -38.9620000000 26.4730000000
-11.3370319190 -40.6350552405 27.5480000000
-11.9891475936 -39.9512182257 28.2837142857
-12.2717536175 -39.6600982606 28.5980000000
-0.8330999994 -50.7234699056 0.2614615385
-0.8195900726 -50.6031047240 1.6563333333
-0.8234438847 -50.5600911008 2.3515714286
-0.8245919781 -50.5196198103 3.0259411765
-1.5240430232 -49.9029374472 8.0411818182
-2.2128355712 -49.1536495853 11.4306923077
-2.2165099469 -49.0184105166 12.1301428571
1.2369668826 -45.8969904694 20.7015714286
-2.9290328642 -48.3929856907 14.2230000000
-3.6358565326 -47.8679475716 15.6306923077
-4.3124488263 -47.0467071068 17.8042500000
-5.0588344037 -46.3859855513 19.1614615385
-7.1589350071 -44.3953452402 22.7730000000
-7.1200556144 -44.1452509208 23.3383846154
-7.8934066954 -43.6790538079 24.0411818182
-7.8305570471 -43.4248493647 24.6580000000
-8.4812013473 -43.0756664673 24.8855000000
24.7239886042 -30.4869088709 37.0230000000
-8.5470848501 -42.8932788198 25.4563333333
-9.0877363518 -42.4957033357 25.9230000000
-9.2161957246 -42.1221567360 26.1460769231
-9.9797586944 -41.4503666457 26.9313333333
-12.7501398458 -38.6720123876 29.6684545455
-0.0955406729 -50.7382805889 0.2411818182
-0.8218954649 -50.3817011895 4.4430000000
-0.8724649846 -50.3000826976 5.1230000000
14.8704556084 -47.3620122039 8.8230000000
-0.8662058070 -50.3179542515 5.7896666667
-0.8112598212 -50.1432510749 5.9730000000
-0.8269866338 -50.0873308000 6.5430000000
-1.5702672068 -49.6531703681 9.3230000000
9.0930713324 -23.3275739440 44.3330000000
-1.5061374439 -49.6106117680 9.9480000000
-2.2462022356 -48.7460229707 12.8396666667
24.4858850313 -37.7379957717 36.7015714286
-2.9454114782 -47.8653703678 15.6265714286
-4.3418907968 -46.7874215964 18.4944285714
-4.2826851974 -46.6230865948 18.6980000000
-4.3296181585 -46.4908153819 19.1411818182
-5.7544564100 -45.4186619983 21.2684545455
-5.7795667351 -45.0378631741 21.9230000000
-7.1728550053 -43.7174750238 24.0866363636
-7.9009180695 -43.1006993643 24.9330000000
-7.9024468197 -42.9972301838 25.4674444444
-9.9354797014 -40.9487103539 27.6230000000
-10.6028705761 -40.5308597735 28.0030000000
44.3801429076 19.4362440945 11.8230000000
-11.3879655882 -39.5476958548 29.1007777778
-12.0889643165 -38.8261034000 29.7292500000
-0.0707340187 -50.6428166878 0.9230000000
-0.0927850157 -50.5090223989 3.0411818182
43.6291955060 -0.1774838021 24.4230000000
-0.1554254494 -50.3318811257 5.0883846154
-6.3785770937 -33.0394875817 37.4280000000
-0.8567149641 -49.8960274957 8.0593636364
27.3464708789 -39.5794181934 14.2980000000
-0.8215971729 -49.6697726501 9.3259411765
-1.5356614473 -49.0092025389 12.1301428571
-2.2057518223 -48.4290164619 14.2730000000
-2.2152792780 -48.2091245698 14.9411818182
-2.9510248002 -47.6563544459 16.3759411765
-3.5450236760 -47.4780875552 16.9730000000
-3.6528433209 -47.1028642226 17.8230000000
-5.0142866765 -45.4925883575 21.2383846154
-5.7494959502 -44.7650896906 22.5593636364
-6.3972265751 -44.2457490780 23.3530000000
-7.9237046648 -42.6242659503 25.9063333333
-8.5421893072 -42.2000668736 26.2355000000
-9.9288546338 -40.5944189493 28.1580000000
-11.3191454366 -39.1460043504 29.6366363636
0.5591693285 -50.7001675362 0.2530000000
0.5319076836 -50.6192646496 0.9230000000
0.4886036431 -50.6169501801 1.6696666667
0.5077990922 -50.5578418920 3.0076153846
-0.1118718434 -50.0870106505 6.5396666667
5.5543520771 -43.0494294644 25.4952222222
-0.1437939392 -49.9313443710 8.0563333333
-0.8283611625 -49.4427313349 10.1515714286
-0.8100459165 -49.3605018172 10.7593636364
-0.8214723894 -49.2018934360 11.4259411765
12.9708132407 -8.3392638239 47.5230000000
-1.6242853698 -48.9239462973 12.8646666667
-34.0132503886 -36.1699260713 8.8230000000
-2.2304389400 -47.9102785299 15.6684545455
-2.9718409069 -47.4533135907 16.9872857143
-2.9351514601 -47.2925104103 17.1855000000
-2.9306290650 -47.1463004708 17.7677368421
-3.6401857095 -46.6704617719 18.7230000000
-3.6587783305 -46.5093124745 19.1530000000
-5.7690878041 -44.5047946897 22.8896666667
-5.7531064789 -44.3361974478 23.3411818182
-7.1378086624 -42.9785617595 25.4730000000
-7.8613836073 -42.2982479046 26.2801428571
-7.8725324395 -42.0134737451 26.8139090909
1.3737615434 -25.4347306286 43.1396666667
-8.5062013473 -41.6735183170 27.0480000000
-9.1975127010 -40.6696763630 28.2861578947
-9.9997241277 -40.2697148367 28.5480000000
-11.2810561306 -38.6535871527 30.2694285714
4.6711473965 -24.6469139650 43.3230000000
-12.0445520533 -37.8677990348 31.0139090909
0.5433761234 -50.5225599777 3.7537692308
46.4463089222 17.7943421486 3.8730000000
0.5883673844 -50.4205880174 4.4684545455
0.5807398763 -50.3182128463 5.1076153846
0.5466402231 -50.2883561908 5.7841111111
0.4889509467 -50.1005766359 6.5480000000
-0.0705172186 -49.8121995390 8.6530000000
-0.0904708480 -49.7006379051 9.3139090909
-0.1175286976 -49.4552217618 10.1896666667
-0.8420867309 -49.0033565201 12.2030000000
-0.9401930517 -48.7464836309 12.9230000000
-0.8475782048 -48.6057961288 13.5422307692
-1.5895964965 -47.9319242206 15.6411818182
-2.2683834393 -47.5134703540 16.9855000000
-2.9291599247 -46.8438481542 18.5411818182
-3.6772150680 -46.2275200546 19.8230000000
-4.3121769329 -45.5557280174 21.2341111111
-5.0092317272 -44.7764773445 22.6663333333
-5.7195829602 -44.0493972903 23.9580000000
-9.9472645726 -39.9719098383 29.0411818182
-12.6503470270 -37.0529405498 31.7167500000
1.2694053687 -50.7061410095 0.2614615385
1.2810737005 -50.6095330201 0.9259411765
1.2518190174 -50.3731842644 4.4320909091
0.5877888425 -49.9311971185 8.0411818182
0.5313800320 -49.7964039979 8.6530000000
0.4962134196 -49.6915498930 9.3306923077
-0.0726274170 -49.3524123643 10.7396666667
-0.1356826694 -49.0514638973 12.1296666667
-2.9315054922 -46.2691489764 19.8259411765
-4.3303219280 -45.3764563623 21.7230000000
-4.3181017044 -44.8458498526 22.6515714286
-27.8359655482 -11.7492862762 40.0230000000
-5.0356337720 -44.3886005212 23.3730000000
-5.0409988852 -44.1399986719 23.9320909091
-5.7435421715 -43.5886613334 24.7515714286
